53391.80702972 66807.01253986 2.95424008 66 66 65
53392.00031281 66807.07599020 2.94757009 95 94 88
53392.01876068 66807.04385996 2.94759989 92 89 90
53392.01750183 66807.07894993 2.94604993 54 56 61
53392.01940155 66807.04911995 2.94742990 86 85 90
53392.02005768 66807.06638002 2.94749999 70 72 77
53392.00833130 66807.12267017 2.94544005 72 74 77
53392.01078796 66807.01366997 2.94863009 80 81 83
53392.00781250 66807.03537989 2.94787002 66 65 65
53391.95715332 66807.04358006 2.94909000 64 66 67
53391.94759369 66807.03645992 2.95006990 63 62 62
53391.95597076 66807.08564997 2.94790006 59 59 62
53391.98133087 66807.00576019 2.94958997 68 68 68
53391.93750763 66807.11689997 2.94827008 67 67 67
53391.92427826 66807.07339001 2.94912004 60 60 61
53391.92234802 66807.11064005 2.94874001 56 57 60
53391.95292664 66806.94313002 2.95304990 227 232 235
53391.90451050 66807.05612993 2.94980001 65 66 69
53391.85913086 66807.04370022 2.95065999 225 230 233
53391.81329346 66807.11254978 2.95579004 224 230 235
53391.90995026 66806.89719009 2.95391989 149 152 155
53391.90467072 66806.90550995 2.95447993 148 153 159
53391.90000153 66806.89115000 2.95861006 152 156 159
53392.02052307 66807.04190016 2.94751000 177 172 164
53392.01981354 66807.04261017 2.94733000 154 146 137
53392.02551270 66807.09298992 2.94624996 172 170 167
53392.02236176 66807.09207010 2.94603992 149 158 169
53391.99256134 66807.07522011 2.94698000 87 86 83
53391.93721008 66807.14245987 2.94738007 80 80 80
53391.98509216 66807.06556988 2.94749999 93 91 87
53391.97937775 66807.00502014 2.94928002 76 79 80
53391.97382355 66807.01185989 2.94942999 87 87 85
53391.94949341 66807.09014988 2.94792008 68 69 69
53391.89344788 66807.09489012 2.94960999 81 83 85
53391.90927124 66807.03752995 2.95046997 216 222 226
53391.95410156 66806.94845009 2.95367002 227 232 235
53391.95436096 66806.94316006 2.95396996 227 233 236
53391.84332275 66807.11187983 2.95466995 226 233 237
53391.91874695 66806.91998005 2.95279002 153 155 157
53391.92592621 66806.91884995 2.95634007 158 159 161
53391.91188049 66806.89612007 2.95450997 165 164 163
53391.92273712 66806.90444994 2.95297003 166 167 167
53391.91242218 66806.89710999 2.95644999 162 163 163
53391.91365051 66806.91383982 2.95413995 154 158 163
53391.90064240 66806.89293003 2.95725012 157 160 162
53391.84084320 66807.02868986 2.95264006 92 93 92
53391.78884888 66807.11735010 2.95188999 222 227 231
53391.78428650 66807.09496021 2.95250010 91 90 89
53391.93890381 66807.16663980 2.94594002 72 73 73
53391.88404846 66807.06523991 2.95064998 77 78 78
53391.85659790 66807.14958000 2.94919991 223 231 237
53391.79192352 66807.11549997 2.95229006 206 218 225
53391.99826050 66807.07846022 2.94875002 84 85 85
53392.04596710 66807.09607983 2.94552994 162 169 174
53392.01463318 66807.08366013 2.94813991 100 100 98
53391.90070343 66806.86139011 2.95668006 24 19 13
53391.71758270 66807.02292013 2.95473003 206 201 191
53391.84368134 66807.04525995 2.95018005 128 132 137
53391.83141327 66807.05997992 2.94852996 129 131 134
53391.93199158 66807.09080982 2.94821000 122 124 129
53391.86621857 66807.21937990 2.94646001 194 205 212
53391.82958221 66807.06378984 2.94854999 145 146 145
53391.79385376 66807.09351015 2.95117998 137 139 139
53391.81123352 66807.05738020 2.94874001 134 137 140
53391.77085876 66807.08303022 2.94827008 130 131 130
53391.77210999 66807.08002996 2.94707990 130 131 131
53391.77889252 66807.04803991 2.95208001 136 137 138
53391.90142059 66807.04972982 2.94897008 137 139 141
53391.94851685 66807.09381008 2.94602990 133 135 136
53391.90598297 66807.04885006 2.94880009 122 123 124
53391.92407227 66807.07610989 2.94824004 148 145 134
53391.90857697 66807.09415007 2.94721007 140 140 137
53391.92485809 66807.10010004 2.94717002 133 134 135
53391.92790985 66807.14148998 2.94706011 128 130 131
53391.91346741 66806.88535023 2.95232010 72 80 93
53391.72428131 66807.09914017 2.95404005 116 111 105
53391.92063141 66807.03522015 2.94971991 126 125 124
53391.87037659 66807.14457989 2.94858003 236 240 241
53391.99723053 66807.07845020 2.94787002 99 100 99
53391.83453369 66806.90610981 2.96113992 166 138 98
53391.89652252 66806.86593008 2.95391011 105 86 57
53391.73915863 66807.10909986 2.95407009 140 135 122
53392.01080322 66807.12188005 2.94683003 200 205 209
53391.82981110 66807.07675982 2.95086002 115 115 114
53391.92150879 66807.08594990 2.94812989 114 115 115
53391.80106354 66806.96050978 2.95580006 119 118 118
53391.89253235 66806.87793016 2.95582008 146 151 162
53391.89399719 66807.04765987 2.95147991 230 232 232
53391.85836029 66807.04341984 2.95392990 232 237 239
53391.98770905 66807.07411003 2.94729996 76 75 76
53392.01020813 66807.11623001 2.94551992 75 75 77
53392.01142883 66807.08256006 2.94639993 66 69 72
53391.84966278 66806.99883986 2.95289993 229 234 237
53391.94805145 66806.96332979 2.95059991 209 220 228
53391.94351196 66806.93936014 2.95141006 219 229 236
53391.95218658 66806.96414995 2.95089006 207 221 231
53391.95870972 66806.96501017 2.95163012 232 235 238
53391.73915100 66807.10754013 2.95595002 125 122 112
53391.85598755 66807.08937979 2.95097995 231 236 239
53391.88697052 66807.03839016 2.95126009 229 234 237
53391.89114380 66807.04116011 2.95200992 232 237 239
53391.87161255 66807.02912998 2.95317006 233 237 240
53391.91339111 66807.03320980 2.95022011 209 218 225
53391.87748718 66807.13401985 2.94935012 229 234 236
53391.85611725 66807.11085987 2.95026994 208 221 231
53391.87834167 66807.11119986 2.94971991 230 235 238
53391.84285736 66807.12954998 2.95020008 231 236 239
53391.90455627 66807.16827011 2.94867992 234 238 241
53391.98651886 66807.08865976 2.94868994 97 97 95
53391.78073120 66806.96365976 2.95721006 123 122 122
53391.85263824 66806.91359997 2.95521998 209 208 206
53391.87309265 66806.90981007 2.95694995 205 208 212
53391.87084961 66806.91269016 2.95389009 180 187 194
53391.93866730 66806.92792988 2.95084000 198 200 203
53391.92790985 66807.03188992 2.95057988 87 86 86
53391.95097351 66807.01325989 2.94986010 224 219 212
53391.98397827 66807.04018021 2.94832993 97 96 96
53391.98343658 66807.06880999 2.94987988 85 85 87
53391.71083832 66807.01957989 2.95728993 185 167 139
53391.85288239 66806.91343021 2.95499992 209 207 206
53391.84999084 66806.91780996 2.95420003 235 239 241
53391.86873627 66806.91254997 2.95422006 213 214 215
53391.86836243 66806.91782999 2.95551991 235 238 240
53391.88963318 66806.91141987 2.95322990 209 209 211
53391.85002899 66806.92669010 2.95444012 235 238 240
53391.85307312 66806.99707985 2.95526004 235 239 240
53391.84738159 66806.98377991 2.95448995 235 240 241
53391.94851685 66806.94941998 2.95223999 235 239 240
53391.93637848 66806.95284986 2.95445991 235 239 240
53391.74233246 66807.12081003 2.95673990 118 116 113
53391.93862915 66807.01939011 2.95037007 231 234 235
53391.93695831 66807.01794004 2.95289993 234 238 239
53391.98628998 66807.04020023 2.94887996 123 121 113
53391.97821045 66807.02589989 2.94975996 110 110 107
53392.00737762 66807.11389017 2.94810009 99 99 99
53391.97147369 66806.98390007 2.95019007 226 228 230
53391.93424225 66807.08116007 2.94899988 78 78 78
53391.88614655 66806.95194006 2.95356011 228 232 235
53391.90865326 66806.99123001 2.95165992 228 233 236
53391.88780212 66807.07192993 2.95021009 106 106 105
53391.97061157 66806.98216009 2.95005012 227 231 233
53391.91618347 66807.10664988 2.94842005 66 68 71
53391.84319305 66807.13888979 2.95005012 217 227 234
53391.87200165 66807.13938999 2.94965005 229 235 238
53391.89830017 66807.15916014 2.94830990 227 233 236
53391.93306732 66806.94235992 2.95262003 235 238 240
53391.81255341 66807.06874990 2.95343995 117 117 116
53392.01701355 66807.07897997 2.94778991 107 107 108
53391.86003113 66807.22346020 2.94787002 207 211 213
53391.84597778 66806.94921017 2.95129991 226 231 235
53391.89698792 66806.95763016 2.95109010 226 232 235
53391.88189697 66806.99006987 2.95125008 225 230 234
53391.95760345 66807.01249981 2.94830990 89 87 86
53391.97151184 66807.01356983 2.94904995 63 65 68
53391.92867279 66807.09810019 2.94766998 76 75 77
53391.95987701 66807.05671978 2.94766998 69 69 68
53391.97148895 66807.04833984 2.94696999 67 67 68
53391.87487793 66807.16137981 2.94902992 231 236 239
53391.97862244 66807.14111996 2.94535995 65 64 65
53391.95301819 66807.16036987 2.94585991 65 66 67
53392.01493073 66807.10488987 2.94542003 105 107 114
53391.89315796 66806.86741018 2.94876003 156 131 86
53391.90651703 66806.86171007 2.95857000 117 88 48
53391.86061096 66806.93391991 2.95152998 227 232 236
53391.88536835 66806.96099997 2.95272994 229 234 236
53391.84056091 66806.94279003 2.95309997 227 233 235
53391.85308075 66806.93408012 2.95291996 227 232 235
53391.84220886 66806.95277023 2.95194006 232 237 239
53391.84771729 66806.94939995 2.95330000 228 234 237
53391.82112885 66806.95387983 2.95319009 232 236 239
53391.86901093 66806.92586994 2.95133996 231 235 237
53391.88327789 66806.98915005 2.94997001 228 234 237
53391.89913177 66807.04665995 2.95001006 206 213 218
53391.93157196 66807.02410984 2.94938993 195 199 201
53391.92948151 66807.02534008 2.94946003 206 208 207
53391.83078766 66807.14435005 2.94964004 216 226 232
53391.84751892 66807.14582014 2.94946003 215 224 230
53391.86470032 66807.14446020 2.94880009 218 228 234
53391.85002899 66807.14055014 2.94940996 218 229 235
53391.92404938 66807.07549000 2.94828010 121 109 87
53391.92742920 66807.07775021 2.94847012 71 72 73
53391.90901947 66807.12423992 2.94839001 112 112 111
53391.96524048 66807.04879999 2.94759989 75 75 74
53391.90293884 66807.16494989 2.94734001 215 224 230
53391.97122955 66807.13235998 2.94598007 85 85 85
53392.01686859 66807.10213995 2.94535995 133 138 145
53392.01416779 66807.11535978 2.94459009 153 157 160
53391.98799133 66807.08538008 2.94657993 84 84 83
53392.01394653 66807.04115009 2.94713998 102 99 90
53392.03098297 66807.07004976 2.94652009 188 185 179
53391.93032074 66807.02601004 2.94957995 218 208 199
53391.86966705 66807.14512014 2.94859004 227 231 234
53391.81269073 66807.21014977 2.94957995 157 165 177
53391.84761810 66806.98332977 2.95232010 226 231 235
53391.89775085 66806.98300982 2.95040011 225 230 233
53391.88542175 66806.99565983 2.95107007 226 231 234
53391.86187744 66806.98896980 2.95187998 225 231 234
53391.95561218 66806.94876003 2.94951010 228 232 235
53391.95603180 66806.96463013 2.94931006 222 227 229
53391.89018250 66807.02225018 2.95049000 218 226 232
53391.83336639 66807.14824009 2.94979000 218 228 234
53391.82849884 66807.14834976 2.95005012 220 228 234
53391.82611084 66807.13744020 2.95029998 205 219 230
53391.86726379 66807.12031984 2.94926000 206 219 230
53391.85037994 66807.14646006 2.94937992 211 223 231
53391.89289856 66807.09826994 2.94963002 111 112 112
53391.98860931 66807.04481983 2.94741988 86 88 85
53391.99214935 66807.07526016 2.94677997 79 80 80
53391.81240845 66807.21140003 2.94936991 151 159 169
53391.83853912 66807.22345018 2.94847989 162 168 175
53391.83242035 66807.22770977 2.94831991 175 175 175
53391.87812042 66807.16597986 2.94777012 229 234 237
53392.02069855 66807.08114004 2.94534993 143 149 156
53392.00260162 66807.07824993 2.94618011 79 81 80
53392.02734375 66807.05948019 2.94530010 163 167 169
53391.78717804 66807.11243010 2.95179009 75 77 80
53391.81054688 66807.10583019 2.95128012 195 212 226
53391.81316376 66807.11354017 2.95093012 195 213 227
53391.98030853 66807.02643013 2.94833994 49 55 62
53391.89396667 66807.19454002 2.94713998 215 225 231
53391.85697174 66807.02896976 2.95113993 213 221 226
53391.95954132 66806.98226023 2.94928002 181 204 222
53391.95281982 66806.97466993 2.95043993 173 198 220
53391.85357666 66807.08947992 2.95018005 197 214 227
53391.81555939 66807.11808014 2.95060992 198 215 228
53391.81278992 66807.12125015 2.95096993 198 215 229
53391.98873138 66806.98356009 2.94784999 174 198 217
53391.85903931 66807.10851002 2.94983006 216 225 231
53391.82507324 66807.12447023 2.95003009 212 224 233
53391.85753632 66806.99420977 2.95190001 233 238 240
53391.95925140 66806.95928001 2.94933009 206 219 229
53391.98618317 66807.00079012 2.94858003 88 88 86
53391.78314209 66806.95496988 2.95442009 122 122 121
53391.85620117 66806.93619013 2.95349002 235 239 241
53391.86946106 66806.92760992 2.95255995 230 233 235
53391.93359375 66806.93956995 2.95019007 232 237 239
53391.89656830 66806.99554014 2.95037007 233 238 240
53391.95567322 66806.97432995 2.94954991 195 214 228
53391.81134033 66807.08947992 2.95158005 87 87 87
53391.82489014 66806.94307995 2.95389009 218 220 220
53391.82888031 66807.07153988 2.95134997 81 80 81
53391.76959991 66807.15681982 2.95170999 228 234 237
53391.85234070 66807.16125011 2.94941998 227 233 236
53391.88555145 66807.16446018 2.94790006 230 236 238
53391.91300964 66807.12769985 2.94794989 87 87 88
53391.82537079 66806.94288015 2.95352006 218 220 218
53391.82695007 66806.93965006 2.95366001 225 230 234
53391.83866119 66806.94712019 2.95310998 228 234 236
53391.78912354 66807.11684990 2.95156002 226 230 232
53391.83056641 66807.07448006 2.95137000 124 119 106
53391.82608795 66807.07696009 2.95114994 107 105 100
53391.80419922 66807.12577009 2.95089006 212 224 233
53391.77175140 66807.16627979 2.95159006 232 237 240
53391.82344818 66807.12186003 2.95044994 230 235 238
53391.83070374 66807.14811993 2.95010996 230 235 238
53391.87567902 66807.15245008 2.94867992 228 234 237
53391.94300079 66807.11849022 2.94744992 77 77 76
53391.91523743 66807.16181993 2.94720006 228 235 237
53391.79531097 66806.94701004 2.95405006 132 134 143
53391.82617950 66806.92805004 2.95412993 170 179 194
53391.79621887 66806.94853020 2.95338011 148 156 171
53391.70896149 66807.02350998 2.95526004 158 160 163
53391.73246765 66807.02469015 2.95454001 59 59 61
53391.73403168 66807.04360008 2.95430994 54 54 56
53391.76821899 66807.02937984 2.95370007 74 74 73
53391.77709961 66806.99579000 2.95387006 67 67 67
53391.75279999 66807.01763010 2.95406008 69 69 69
53391.77310944 66807.02812004 2.95337009 59 59 61
53391.81900024 66806.99276018 2.95233989 66 66 66
53391.82752228 66806.98794985 2.95286989 223 230 233
53391.75476074 66807.05216980 2.95332003 65 64 65
53391.73105621 66807.09723997 2.95293999 74 73 71
53391.77390289 66807.07502985 2.95267010 66 66 65
53391.77522278 66807.05511999 2.95380998 54 56 59
53391.82023621 66806.99861002 2.95292997 76 77 75
53391.77529144 66807.11589003 2.95204997 70 70 71
53391.84812164 66807.03961992 2.95151997 74 73 74
53391.84262085 66807.03846979 2.95149994 68 69 71
53391.80593109 66807.12813997 2.95100999 225 231 235
53391.84825134 66807.11166000 2.94979000 220 220 219
53391.81314087 66807.12356997 2.95081997 227 234 237
53391.89089966 66807.09891987 2.94902992 121 118 121
53391.90484619 66807.08581018 2.94902992 72 72 73
53391.91806030 66807.04281998 2.94949007 90 90 88
53391.81906891 66807.22997999 2.94879007 148 154 160
53391.76499176 66806.97004986 2.95400000 108 108 105
53391.77204132 66806.96538019 2.95426989 110 109 107
53391.78018188 66806.95670986 2.95424008 105 104 102
53391.79048920 66806.95100021 2.95427990 120 120 118
53391.77996063 66806.96195984 2.95422006 132 132 128
53391.78630829 66806.94805002 2.95390010 101 102 98
53391.79543304 66806.94823980 2.95419002 139 140 142
53391.72138214 66807.02439022 2.95459008 161 161 158
53391.70884705 66807.02178001 2.95556998 178 177 173
53391.75808716 66807.00364017 2.95430994 95 95 91
53391.78813171 66806.97197008 2.95412993 94 93 88
53391.82305145 66807.02700996 2.95209002 72 73 75
53391.78826904 66807.10715008 2.95191002 68 70 72
53391.78598785 66807.10631990 2.95204997 85 86 85
53391.80905914 66807.09745979 2.95215011 71 73 75
53391.83731842 66807.05061007 2.95131993 71 73 75
53391.79238129 66807.10195017 2.95177007 84 84 83
53391.82833099 66807.15966988 2.94967008 226 231 234
53391.85523987 66807.10576010 2.95030999 205 219 229
53391.84176636 66807.13620996 2.94986010 227 233 236
53391.81263733 66807.12171984 2.95002007 227 233 236
53391.82144928 66807.21231985 2.94858003 139 148 157
53391.86786652 66807.14584017 2.94899988 210 223 232
53391.82787323 66807.23423004 2.94842005 136 147 159
53391.74137115 66807.02775002 2.95419002 72 72 72
53391.74868011 66807.01519012 2.95442009 71 71 71
53391.77140808 66806.97824001 2.95426989 62 62 62
53391.73261261 66807.10319996 2.95400000 64 66 67
53391.81236267 66807.00264978 2.95317006 62 62 62
53391.79225159 66807.10365009 2.95178008 65 66 69
53391.83293915 66807.04133987 2.95190001 80 81 82
53391.85408020 66807.06864977 2.95059991 72 74 76
53391.77152252 66807.15525007 2.95116997 227 233 236
53391.77645111 66807.15557003 2.95092010 228 234 237
53391.79875183 66807.14476013 2.95149994 205 220 231
53391.80924988 66807.12248993 2.95082998 203 217 228
53391.71972656 66807.06555986 2.95457006 60 69 78
53391.73130798 66807.04962015 2.95419002 48 53 60
53391.75808716 66807.08390999 2.95266008 62 64 67
53391.80690002 66807.01312017 2.95251989 67 69 71
53391.78929138 66807.02194977 2.95307994 56 58 60
53391.80924225 66807.01636982 2.95251989 57 59 62
53391.79782104 66807.05872011 2.95273995 72 74 76
53391.79573059 66807.04105997 2.95299006 45 49 55
53391.78088379 66807.10278988 2.95244002 51 54 58
53391.77863312 66807.10938978 2.95180011 60 62 66
53391.82495117 66807.14866018 2.95052004 194 213 228
53391.86459351 66807.15948009 2.94865990 212 222 230
53391.93300629 66807.12695980 2.94755006 57 58 63
53391.87036896 66807.21799994 2.94931006 117 136 158
53391.74836731 66807.03829002 2.95473003 63 65 68
53391.81085968 66807.00234985 2.95390010 48 53 58
53391.77922058 66807.04040003 2.95289993 71 74 76
53391.83290100 66807.04184008 2.95155001 72 74 76
53391.79206848 66807.04024982 2.95252991 71 73 74
53391.81774902 66807.00119019 2.95268011 69 72 74
53391.85990143 66807.00582981 2.95293999 186 205 221
53391.78891754 66807.11316013 2.95155001 74 77 81
53391.81036377 66807.17224979 2.95239997 194 212 227
53391.73622131 66807.06256008 2.95772004 36 45 56
53391.73223877 66807.06054020 2.95836997 42 50 60
53391.72408295 66807.02986002 2.95457006 84 85 91
53391.72097015 66807.04608011 2.95532990 105 108 113
53391.72580719 66807.05960989 2.95396996 70 70 71
53391.73828888 66807.01514006 2.95436001 75 75 75
53391.85337830 66806.95730019 2.95367002 221 228 232
53391.79261780 66807.04293013 2.95252991 67 67 68
53391.76535797 66807.04703999 2.95363998 59 60 62
53391.80957031 66807.02140999 2.95249009 76 76 75
53391.83267975 66807.04293013 2.95123005 73 73 73
53391.82302094 66806.99918985 2.95260000 76 76 77
53391.81948853 66807.06388998 2.95195007 71 71 71
53391.79309082 66806.94932985 2.95388007 121 121 119
53391.72744751 66807.01484013 2.95444012 160 161 165
53391.79464722 66806.97763014 2.95335007 79 79 80
53391.82373810 66806.93972015 2.95375991 220 224 225
53391.82325745 66806.94648981 2.95404005 222 230 233
53391.75672150 66807.08287001 2.95295000 79 79 78
53391.84091187 66807.02857018 2.95223999 85 86 88
53391.81414795 66807.00344992 2.95267010 86 86 86
53391.82801056 66807.07075024 2.95126009 77 77 77
53391.79940033 66807.08147001 2.95182991 82 82 82
53391.85088348 66807.06290007 2.95064998 81 81 81
53391.84915161 66807.03796005 2.95197010 70 73 77
53391.80271149 66806.97235012 2.95471001 94 94 94
53391.82299042 66807.08686018 2.95156002 94 95 96
53391.92318726 66807.11534023 2.94837999 69 72 75
53391.87384796 66806.91319990 2.95349002 171 178 187
53391.84790802 66806.97093010 2.95222998 232 235 237
53391.89250183 66806.91420984 2.95228004 165 174 185
53391.72197723 66807.08809996 2.95378995 92 92 90
53391.98844910 66806.99957991 2.94885993 89 89 88
53391.96083069 66807.06436014 2.94805002 76 75 75
53391.97749329 66807.05308008 2.94806004 79 79 79
53391.85605621 66807.21721983 2.94755006 182 187 194
53391.83683014 66807.21475983 2.94841003 165 172 186
53391.91751862 66807.16819000 2.94687009 191 198 207
53391.99217987 66807.09431982 2.94643998 90 87 84
53391.76502228 66806.96971989 2.95448995 142 141 138
53391.87046814 66806.88177013 2.96054006 111 79 46
53391.85127258 66806.95640993 2.95378995 229 234 236
53391.85324860 66806.93275023 2.95299006 232 236 238
53391.85325623 66806.98192978 2.95243001 230 234 236
53391.82527161 66806.95566988 2.95327997 231 236 238
53391.85146332 66806.99571991 2.95202994 232 236 238
53391.80416870 66807.11502981 2.95140004 221 225 226
53391.88269043 66807.06351995 2.95025992 94 93 93
53391.95172882 66807.02214003 2.94854999 103 103 102
53391.94907379 66807.01341009 2.94968009 227 222 211
53391.85822296 66807.15376997 2.94878006 216 226 233
53391.82775879 66807.15552998 2.94950008 231 236 239
53391.94786072 66807.06932020 2.94823003 69 71 73
53391.88294983 66807.16309023 2.94837999 229 234 237
53391.87404633 66807.16236019 2.94835997 232 237 239
53391.91519165 66807.16627979 2.94702005 197 204 208
53391.89769745 66807.16772985 2.94752002 230 235 238
53392.00366211 66807.09357023 2.94624996 82 81 82
53392.00627899 66807.00004005 2.94876003 96 97 92
53391.89878082 66806.86510992 2.95377994 65 54 39
53391.74432373 66807.05261993 2.95514989 68 67 68
53391.93067932 66806.92311001 2.95207000 150 154 160
53391.90676117 66806.91157007 2.95221996 151 156 159
53391.73552704 66807.10477018 2.95468998 107 88 54
53391.76790619 66807.07361984 2.95373011 70 69 70
53391.76686859 66807.08066988 2.95303011 65 65 66
53391.81574249 66807.03622007 2.95229006 75 74 74
53391.94518280 66806.92548990 2.95093989 158 160 162
53391.94458771 66806.91968012 2.95159006 146 152 160
53391.93418884 66806.92643976 2.95156002 148 153 159
53391.81475830 66807.11948013 2.95148993 225 231 234
53391.85101318 66807.06593990 2.95099998 72 72 72
53391.92221832 66807.02998018 2.94948006 201 199 195
53391.98708344 66807.07215977 2.94712996 80 80 77
53392.01148224 66807.11562014 2.94541001 78 79 84
53391.76960754 66806.96678019 2.95462990 105 103 100
53391.92180634 66806.87719011 2.95303988 158 159 162
53391.94396973 66806.91393995 2.95173001 159 161 163
53391.76100159 66807.06490993 2.95377994 77 77 77
53391.94506073 66806.92358017 2.95128012 167 171 173
53391.95709229 66806.93646002 2.95080996 162 164 168
53391.95465088 66806.93122005 2.95100999 163 166 170
53391.79290009 66807.12652016 2.95194006 225 231 234
53391.94486237 66807.03358984 2.94889998 78 77 76
53391.93559265 66807.03886986 2.94992995 68 70 72
53391.84300232 66807.16402006 2.94894004 227 234 236
53391.85021973 66807.15825987 2.94942999 228 233 236
53391.82882690 66807.16664982 2.94992995 210 223 232
53392.01281738 66807.01606989 2.94787002 150 150 149
53391.79972839 66806.96802998 2.95390010 61 61 62
53391.84757996 66807.03919983 2.95151997 73 74 75
53391.81284332 66807.09321022 2.95150995 73 74 74
53391.84937286 66807.05680990 2.95110989 67 68 71
53391.80120087 66806.94101000 2.95467997 215 223 229
53391.79229736 66807.00567007 2.95356011 61 61 61
53391.84935760 66806.96311998 2.95237994 222 227 231
53391.77220917 66807.07192993 2.95268011 58 60 64
53391.81227112 66807.06510019 2.95246005 65 65 66
53391.87095642 66807.00311995 2.95163989 224 229 232
53391.80097198 66807.09257984 2.95192003 66 66 66
53391.79055786 66807.09347010 2.95180011 65 66 69
53391.80979919 66807.09603977 2.95093989 81 81 81
53391.81006622 66807.09838009 2.95091009 70 72 76
53391.88218689 66807.06232977 2.94976997 82 82 82
53391.82964325 66807.06663990 2.95086002 67 69 71
53391.95413208 66807.01445007 2.94927001 98 98 97
53391.84673309 66807.15947008 2.94915009 225 230 234
53391.94055939 66807.04665995 2.94899011 53 56 62
53391.98368073 66807.05839014 2.94802999 70 69 69
53391.82106018 66807.00229979 2.95321012 80 79 78
53391.87899017 66806.95523977 2.95159006 221 225 228
53391.85051727 66806.95976019 2.95263004 223 228 231
53391.85411835 66806.95812988 2.95297003 222 227 231
53391.85735321 66806.96000004 2.95303011 225 230 233
53391.92984772 66806.91302013 2.95215011 159 159 159
53391.84651947 66807.03769016 2.95109010 102 101 98
53391.89774323 66806.95834017 2.95098996 228 232 235
53391.94065857 66806.92288017 2.95106006 158 161 164
53391.95381165 66806.93796015 2.95068002 145 150 158
53391.96691895 66806.94309998 2.94957995 147 152 160
53391.80959320 66807.17237997 2.95089006 225 229 233
53391.81281281 66807.14986992 2.95023990 204 218 229
53391.81359100 66807.18628979 2.95128012 225 230 235
53391.97753906 66807.05471992 2.94795990 62 64 69
53391.93850708 66807.15614986 2.94671011 87 89 92
53391.80219269 66806.96054983 2.95295000 78 78 79
53391.86360931 66806.99005985 2.95210004 223 229 233
53391.82200623 66806.92438984 2.95308995 195 201 208
53391.90319824 66806.91692019 2.95192003 171 178 187
53391.90809631 66806.90327978 2.95145988 177 176 173
53391.92881775 66806.91393995 2.95093989 168 169 170
53391.81857300 66807.02262020 2.95199990 62 64 67
53391.88996124 66806.97683001 2.95037007 231 235 237
53391.88009644 66807.01620007 2.95090008 231 236 238
53391.94921875 66806.92460012 2.95006990 158 161 164
53391.94767761 66807.01549006 2.94837999 229 228 226
53391.96749115 66807.00570011 2.94806004 124 123 133
53391.97454071 66807.00784016 2.94864988 82 81 81
53391.95961761 66807.02160978 2.94882011 78 77 77
53391.84477234 66806.95140982 2.95311999 231 236 238
53391.87416077 66806.96639013 2.95062995 231 236 238
53391.82942963 66806.95572996 2.95250010 232 237 239
53391.91847229 66806.92002010 2.95063996 171 172 172
53391.88970184 66806.96104002 2.95157003 231 236 238
53391.87510681 66807.02615976 2.95040989 227 232 234
53391.89170074 66806.96150017 2.95162010 230 235 237
53391.90836334 66806.99101019 2.95104003 232 237 240
53391.92117310 66806.98819017 2.94863009 232 237 239
53391.94896698 66806.91726017 2.95042992 168 169 172
53391.85189819 66807.12693024 2.95022011 231 235 238
53391.71864319 66807.01386976 2.95584011 226 225 220
53392.01777649 66807.04473019 2.94679999 91 93 95
53391.99751282 66807.01618004 2.94842005 127 121 108
53391.85298157 66806.95737982 2.95313001 237 239 241
53391.88921356 66806.91454983 2.95307994 185 193 201
53391.93467712 66806.93914986 2.95216990 237 239 240
53391.91124725 66806.97694016 2.95075011 237 240 241
53391.88732147 66807.01833010 2.95208001 235 239 240
53391.94786835 66806.96634007 2.95029998 211 219 225
53391.83199310 66806.97922993 2.95346999 237 241 242
53391.86255646 66806.97280979 2.95270991 237 240 242
53391.85102081 66806.99277020 2.95286012 237 240 241
53391.85604858 66806.98931980 2.95324993 237 241 242
53391.89774323 66806.98307991 2.95194006 237 240 241
53391.95433044 66806.95648003 2.95024991 211 224 233
53391.94423676 66806.94847012 2.95018005 237 240 242
53391.88688660 66806.95781994 2.95181990 237 241 242
53391.80895996 66807.09726000 2.95132995 106 107 106
53391.87650299 66807.03387022 2.95111990 231 235 237
53391.71460724 66807.02092981 2.95410991 80 72 66
53391.73132324 66807.05023003 2.95350003 58 59 59
53391.86576080 66806.88434982 2.96113992 126 102 63
53391.72135925 66807.07397985 2.95283008 63 63 63
53391.80631256 66807.21487999 2.94783998 116 130 148
53391.73462677 66807.02814007 2.95448995 79 79 78
53391.72245789 66807.04982996 2.95378995 66 66 65
53391.77548218 66807.03227997 2.95370007 63 64 66
53391.78986359 66807.13115978 2.95194006 203 218 229
53391.80872345 66807.12025976 2.95117998 203 217 227
53391.80043793 66807.11908007 2.95044994 204 219 229
53391.81613922 66807.12995005 2.94992995 227 232 236
53391.78658295 66806.95346022 2.95359993 64 64 64
53391.74800110 66807.03589010 2.95455003 60 61 64
53391.79518127 66807.03259993 2.95293999 74 74 73
53391.84786987 66806.99616003 2.95215011 223 228 231
53391.85339355 66806.98872995 2.95258999 223 228 231
53391.92485046 66806.92343998 2.95177007 139 145 153
53391.91677856 66806.92080021 2.95191002 145 150 157
53391.79509735 66807.09697008 2.95187998 68 70 73
53391.81674194 66807.09056997 2.95109010 74 74 74
53391.83442688 66807.08358002 2.95096993 64 66 71
53391.90171051 66807.00112009 2.95110011 202 215 226
53391.89024353 66806.97708988 2.95142007 224 229 232
53391.79319000 66807.17881012 2.95024991 222 227 231
53392.01870728 66807.05252981 2.94681001 66 66 70
53392.01512909 66807.10480022 2.94563007 83 84 92
53391.75804138 66807.06020021 2.95397997 69 69 68
53391.86683655 66806.97163010 2.95211005 223 229 232
53391.85336304 66806.98207998 2.95261002 222 228 231
53391.88160706 66806.96266985 2.95244002 224 230 232
53391.85894012 66806.99869013 2.95288992 225 230 234
53391.85691071 66806.98018980 2.95203996 224 229 233
53391.77749634 66807.11860991 2.95162010 106 107 107
53391.83278656 66807.06431007 2.95118999 84 83 82
53391.81285858 66807.07257986 2.95160007 68 68 68
53391.91129303 66807.00890017 2.95003009 225 230 234
53391.89788818 66806.98985004 2.95045996 224 231 234
53391.89436340 66806.99882984 2.95077991 225 230 234
53391.90522766 66807.00804996 2.95050001 226 232 235
53391.90670776 66807.01700020 2.95100999 203 217 229
53391.88419342 66807.01031017 2.95132995 226 231 235
53391.82367706 66807.14818001 2.95023990 226 231 234
53391.82496643 66807.13942003 2.95009995 225 231 234
53391.86782074 66807.11651993 2.94984007 208 220 229
53391.81575012 66807.18897009 2.94941998 223 230 233
53391.90602112 66807.10516977 2.94913006 70 72 73
53392.02092743 66807.05120993 2.94695997 139 141 144
53392.02123260 66807.04199982 2.94701004 174 169 163
53392.03173065 66807.04742002 2.94660997 162 162 164
53391.94650269 66807.11781979 2.94718003 58 58 58
53391.81382751 66807.00745010 2.95307994 67 69 70
53391.80029297 66807.07239008 2.95192003 69 69 69
53391.76786804 66807.08136988 2.95278001 56 58 62
53391.79093170 66807.09876013 2.95198989 78 79 79
53391.78637695 66807.10511017 2.95168996 94 92 87
53391.75691223 66807.06884003 2.95314002 81 81 81
53391.81999207 66807.03269005 2.95232010 57 60 63
53391.90660095 66807.12081003 2.94812989 76 79 79
53391.76097107 66807.06496000 2.95303988 72 74 77
53391.83078003 66806.94111013 2.95359993 223 228 231
53391.85568237 66807.05036020 2.95124006 85 85 84
53391.79798889 66806.95207024 2.95423007 125 128 130
53391.88947296 66806.87593985 2.95293999 57 49 45
53391.92198181 66807.18037987 2.94671011 215 221 222
53391.87246704 66806.88677979 2.96159005 101 89 62
53391.90367126 66806.86196995 2.95584989 35 29 19
53391.91433716 66806.88383007 2.95123005 124 130 132
53391.71869659 66807.01533985 2.95402002 132 122 104
53391.72853088 66807.10335016 2.95361996 115 116 115
53391.89250946 66807.10462999 2.95227003 134 141 147
53391.95501709 66807.01557016 2.95050001 136 134 137
53391.94538879 66807.02142000 2.95041990 135 134 136
53391.92011261 66807.07847023 2.94963002 90 92 92
53391.93715668 66807.03306007 2.95146990 92 95 98
53391.77890778 66807.12163019 2.95365000 95 96 97
53391.90512848 66807.11495018 2.95147991 107 108 107
53391.78633881 66807.12074995 2.95336008 224 230 232
53391.76457214 66807.08688021 2.95442009 113 113 113
53391.82392120 66807.02143002 2.95356989 78 78 79
53391.85356140 66806.89668989 2.96187997 127 103 71
53391.80335999 66806.93068981 2.96499991 149 125 87
53391.72321320 66807.09608984 2.95341992 96 97 103
53391.80152130 66806.93075991 2.96392012 96 77 51
53391.79074860 66807.11640978 2.95316005 186 191 190
53391.73610687 66807.10714006 2.95161009 132 118 93
53391.99256897 66806.97655010 2.93971992 228 233 236
53391.89672852 66806.86448002 2.95260000 116 100 69
53391.89566803 66806.86684990 2.95276999 111 94 65
53391.83968353 66806.90653992 2.96156001 131 106 76
53391.75192261 66806.97237015 2.95496988 125 126 134
53391.72561646 66807.02549982 2.95582008 86 87 94
53391.73036957 66807.01087999 2.95468998 97 100 107
53391.75428772 66806.97024012 2.95351005 94 93 98
53391.71775818 66807.02367020 2.95482993 158 161 159
53391.89317322 66806.87033987 2.95149994 163 140 90
53391.71875000 66807.02554989 2.95414996 166 169 166
53391.90399170 66806.90618992 2.95270991 149 155 161
53391.81664276 66806.99951982 2.96116996 69 69 69
53391.77651978 66807.02580976 2.95323992 72 71 71
53391.75890350 66807.01421022 2.95398998 88 89 86
53391.80988312 66806.99945021 2.95274997 70 71 71
53391.80020905 66806.95600986 2.95362997 87 86 85
53391.72109222 66807.04781008 2.95444989 84 86 94
53391.75270844 66807.03079987 2.95406008 83 83 81
53392.06336975 66807.08383989 2.95514011 172 147 96
53391.98148346 66807.00665998 2.94879007 107 112 112
53391.80161285 66806.93031979 2.96397996 114 91 63
53391.71459961 66807.01948977 2.95460010 79 80 80
53391.72158813 66807.08808994 2.95387006 67 69 71
53391.80187225 66807.02214003 2.95284009 58 60 62
53391.79724121 66807.01542997 2.95374990 70 70 69
53391.73783875 66807.10850000 2.95321012 67 64 59
53391.82788086 66807.24745989 2.94926000 115 117 122
53391.92962646 66807.16143990 2.94807005 88 87 86
53391.73516083 66807.10448980 2.95273995 158 135 90
53391.91020203 66807.07117987 2.94923997 114 115 115
53391.86898804 66806.88784981 2.96233010 125 111 91
53391.75559998 66806.95881987 2.96446991 80 61 32
53391.78627777 66807.00663996 2.95360994 70 70 69
53391.96289825 66807.08826017 2.94724011 69 68 68
53391.98590851 66807.00621986 2.94920993 85 85 83
53391.99047089 66806.99271011 2.94478989 84 84 85
53391.73857880 66806.97345018 2.96416998 158 156 149
53391.95079041 66807.06860018 2.94826007 59 63 68
53392.06017303 66807.08268023 2.95648003 40 32 25
53391.73998260 66807.10828018 2.95385003 104 98 84
53391.88050842 66807.08032990 2.97757006 73 75 78
53391.81506348 66806.92892981 2.95416999 166 180 196
53391.79537201 66807.04124022 2.95357990 64 65 67
53391.96053314 66807.02191019 2.94975996 43 48 56
53391.96925354 66807.02506018 2.95004010 38 44 54
53391.90467072 66807.10676003 2.94974995 48 53 62
53391.90567017 66807.10866022 2.94886994 58 63 69
53391.77709961 66807.04520988 2.95360994 46 50 54
53392.01625824 66807.03205013 2.94944000 34 46 62
53391.95259094 66807.02215004 2.95096993 33 43 55
53391.93744659 66806.95256996 2.95145011 168 194 215
53391.94962311 66806.98611021 2.95146990 155 187 213
53391.78240967 66807.01610994 2.95370007 73 73 73
53391.87259674 66806.88392019 2.95720005 24 23 18
53391.93064117 66806.92305994 2.95226002 97 121 147
53391.79267120 66807.02463007 2.95360994 71 71 71
53391.97086334 66806.98232985 2.95086002 151 184 208
53391.96404266 66806.97587013 2.95046997 169 192 208
53391.94326019 66806.95274019 2.95229006 153 185 210
53391.93737793 66806.93957996 2.95256996 153 186 213
53391.94241333 66806.94633007 2.95449996 153 186 212
53391.78063202 66807.11920977 2.95315003 71 71 74
53391.83068848 66807.21487999 2.94708991 113 132 156
53391.92835999 66807.10265017 2.95023990 53 57 65
53392.00096893 66807.01891994 2.94905996 54 59 62
53391.96051788 66806.97052002 2.95084000 178 198 213
53391.97740173 66806.98484993 2.95021009 176 194 208
53391.96913147 66806.98519993 2.95335007 186 202 214
53391.82350922 66807.07233000 2.95168996 78 77 74
53391.73583984 66807.10442019 2.95200992 65 62 53
53391.92117310 66807.03241014 2.94991994 153 157 159
53391.75875854 66807.08381987 2.95407009 44 49 57
53391.74346161 66807.11034012 2.95357990 45 51 55
53391.79270935 66806.94420004 2.95771003 80 81 80
53391.81625366 66807.06158018 2.95485997 63 64 67
53391.90425110 66806.89261007 2.95440006 161 159 148
53391.90706635 66807.06032991 2.95170999 74 77 78
53391.77568054 66807.11589003 2.95325994 49 54 63
53391.96856689 66807.02434015 2.95033002 62 63 65
53391.87847137 66806.87408018 2.96070004 196 170 111
53391.99127960 66807.00879002 2.94958997 81 81 79
53392.02301788 66807.02156019 2.94231009 13 13 10
53392.01656342 66807.03819990 2.94745994 47 53 59
53392.00038910 66807.07256985 2.94663000 54 57 60
53392.00131989 66807.07848978 2.94646001 66 68 70
53391.83190155 66807.18512011 2.94884992 190 208 223
53391.83786774 66807.18059015 2.94839001 192 210 225
53391.95288849 66807.04044008 2.94823003 51 56 62
53391.77333832 66807.11622000 2.95145988 62 65 69
53391.79801178 66807.10450983 2.95134997 49 53 61
53391.96777344 66806.98868990 2.94941998 187 204 219
53391.88523865 66806.99707985 2.95105004 185 204 220
53391.84130096 66807.05977011 2.95071006 67 69 72
53391.78278351 66807.07540989 2.95181990 66 68 71
53391.79881287 66807.06709003 2.95175004 70 72 74
53391.78373718 66807.08583021 2.95161009 60 63 67
53391.81713104 66807.01039982 2.95198989 67 69 71
53391.80503845 66807.01817989 2.95213008 45 49 55
53391.77571869 66807.02548981 2.95283008 52 55 59
53391.78164673 66807.02928019 2.95276999 47 51 58
53392.00032043 66807.08823013 2.94656992 51 56 62
53391.83654022 66807.18202019 2.94875002 192 210 223
53391.81642914 66807.15900993 2.94898009 191 208 222
53391.81616974 66807.17512989 2.94935989 189 207 222
53391.81710815 66807.15888023 2.94936991 191 209 223
53391.83792877 66807.13938999 2.94901991 193 211 225
53391.83016968 66807.07965994 2.95030999 62 66 70
53391.89602661 66807.01213980 2.95004010 189 207 223
53391.91558838 66807.01484013 2.95000005 190 208 224
53391.87667847 66806.99555016 2.95159006 188 207 223
53391.76761627 66807.07634020 2.95222998 47 51 56
53391.78038788 66807.05392981 2.95268989 57 61 64
53391.74529266 66807.05227995 2.95334005 48 52 57
53391.78024292 66807.02904987 2.95268011 71 73 75
53391.75421906 66807.05026007 2.95310998 71 73 76
53391.76332855 66807.02791977 2.95339990 51 54 58
53391.77648163 66807.04802990 2.95268989 62 62 62
53391.75817108 66807.05810022 2.95300007 55 55 57
53391.86888123 66807.11837006 2.94955993 221 228 231
53391.81195831 66807.09919024 2.95098996 89 89 90
53391.80673218 66807.05456018 2.95207000 69 70 69
53391.78395844 66807.04786015 2.95251989 84 83 77
53391.74983978 66807.10464001 2.95283008 65 66 67
53391.96031952 66806.97605991 2.94974995 207 200 192
53391.96610260 66806.94232988 2.95072007 153 159 166
53391.93276978 66807.01265001 2.95050001 229 232 234
53391.89109802 66807.03011990 2.95120001 228 232 234
53391.78919220 66807.09075022 2.95150995 79 79 79
53391.74646759 66807.08729982 2.95372009 85 84 83
53391.78484344 66807.07047987 2.95187998 73 73 73
53391.73773956 66807.10401011 2.95215011 112 94 67
53391.73786926 66807.10898018 2.95244002 41 43 44
53391.73840332 66807.10615015 2.95205998 75 68 51
53391.73635101 66807.05465984 2.95337009 99 92 84
53391.72830963 66807.06356001 2.95498991 81 81 80
53391.75388336 66807.03282022 2.95330000 72 72 73
53391.73919678 66807.02700996 2.95375991 76 76 76
53391.73307037 66807.05708981 2.95391989 60 64 68
53391.77909851 66807.02978992 2.95317006 83 83 81
53391.89360046 66807.05743980 2.95059991 113 113 111
53391.96601868 66806.94544983 2.94980001 153 159 169
53391.79300690 66807.08500004 2.95128989 87 87 86
53391.75190735 66807.08071995 2.95263004 88 88 87
53391.73764038 66807.10500002 2.95195007 151 128 87
53391.95327759 66806.92105007 2.95007992 183 178 170
53391.86428833 66806.99318981 2.95002007 229 233 236
53391.84957123 66807.10956001 2.95034003 223 222 216
53391.91432953 66807.16238022 2.94689989 208 213 217
53391.95182037 66807.01626015 2.95002007 109 106 102
53391.91049957 66807.15382004 2.94746995 232 233 232
53391.90003967 66807.00360012 2.95153999 224 229 232
53391.76577759 66807.09472990 2.95271993 90 90 90
53391.80680084 66807.04819012 2.95279002 44 50 55
53391.79306793 66807.04273987 2.95345998 41 46 52
53391.75920868 66807.04989004 2.95427990 41 46 52
53391.83925629 66807.16486979 2.94864011 193 209 222
53391.81899261 66807.15299988 2.95106006 190 209 223
53391.86119080 66807.14618015 2.94988990 190 209 224
53391.86083984 66807.10573006 2.94914007 164 175 184
53391.80982208 66807.04939985 2.95267010 49 53 60
53391.75491333 66807.07866001 2.95412993 47 52 58
53391.77945709 66807.08508015 2.95291996 61 64 68
53391.93882751 66806.94915009 2.95158005 151 184 210
53391.80579376 66807.01928997 2.95211005 65 68 72
53391.80619049 66807.02866983 2.95217991 67 69 73
53391.81857300 66807.01868010 2.95275998 57 62 68
53391.78826141 66807.03893995 2.95201993 67 69 74
53391.92382050 66806.92785978 2.95282006 155 187 212
53391.92220306 66806.93053007 2.95311999 157 190 216
53391.92549133 66806.93486023 2.95074010 157 190 217
53391.78318787 66807.04323006 2.95232010 74 77 81
53391.95677948 66807.04512978 2.94904995 89 94 96
53391.73507690 66807.10016012 2.95325994 53 61 69
53391.73580170 66807.05362988 2.95418000 84 85 83
53391.95291138 66806.97149992 2.94998002 197 214 229
53391.79309845 66806.94805002 2.95342994 117 116 118
53391.72834015 66807.01482010 2.95448995 151 154 162
53391.73822784 66807.02967978 2.95378995 92 92 93
53391.74391174 66807.02572012 2.95386004 89 89 89
53391.80471039 66806.92739010 2.96423006 94 74 55
53391.80145264 66806.92963982 2.96273994 118 101 75
53391.96286011 66806.96608019 2.94901991 197 214 228
53391.94004822 66806.93569994 2.95082998 197 215 229
53391.94872284 66806.94988012 2.94954991 198 216 229
53391.93521118 66806.94243002 2.95017004 199 217 230
53391.84998322 66807.00157022 2.95095992 230 235 237
53391.84748077 66807.00194979 2.95100999 229 235 237
53391.71592712 66807.01914978 2.95450997 84 85 78
53391.91011047 66806.93855000 2.95331001 192 212 226
53391.92328644 66807.18204021 2.94566011 228 232 234
53391.85001373 66807.10980988 2.94878006 237 237 235
53391.73829651 66807.11051989 2.95057988 86 87 83
53391.82736969 66807.04690981 2.95006990 150 153 154
53391.79176331 66807.10122013 2.94939995 154 155 156
53391.81556702 66807.08542013 2.94714999 148 152 153
53391.83979034 66807.05601978 2.94725990 148 152 153
53391.92501068 66807.04827976 2.94647002 140 146 149
53391.93213654 66807.05615997 2.94390011 138 143 146
53391.96829987 66807.02539015 2.94660997 131 133 133
53391.96044922 66807.02977991 2.94832993 128 131 131
53391.83457947 66807.22046995 2.94414997 227 235 239
53391.84261322 66807.21677017 2.94896007 228 236 238
53391.93177032 66807.14913988 2.94594002 129 132 135
53391.90471649 66807.10235977 2.94763994 137 139 140
53391.98307800 66807.10487986 2.94710994 123 127 128
53391.82393646 66807.07660007 2.94695997 159 160 158
53391.83064270 66807.07545996 2.95028996 163 161 153
53391.89759827 66807.08159018 2.94835997 145 147 146
53391.84626770 66807.04292011 2.95097995 161 162 160
53391.92458344 66807.06005001 2.94829011 137 141 141
53391.91561890 66807.06029987 2.94769001 137 140 141
53391.88363647 66807.08052015 2.94601011 153 157 158
53391.89482880 66807.09965992 2.94633007 167 168 167
53391.85475922 66807.07191992 2.94852996 158 162 162
53391.96691895 66807.02880001 2.94718003 141 142 139
53391.84683990 66807.22437000 2.94439006 233 237 238
53391.84332275 66807.22235012 2.95198011 233 237 238
53391.98473358 66807.06235981 2.94659996 144 144 140
53391.85151672 66807.22259998 2.94677997 215 224 228
53392.00472260 66807.05086994 2.94606996 113 117 119
53391.83653259 66807.03241014 2.95172000 140 142 142
53391.82023621 66807.03151989 2.95015001 145 146 143
53391.92823792 66807.10612011 2.94768000 136 137 134
53392.01403046 66807.04275990 2.94573998 146 143 135
53391.79620361 66806.95348978 2.95508003 136 135 133
53391.86839294 66806.88146019 2.96076989 102 92 81
53391.91107941 66807.15470982 2.94793010 220 225 227
53391.91606140 66807.16553020 2.94705009 219 222 222
53391.91134644 66807.15658998 2.94764996 232 234 234
53391.92176819 66807.18037987 2.94633007 230 229 228
53391.96122742 66807.14739990 2.94582009 127 126 122
53391.71562958 66807.02039003 2.95322990 67 63 58
53391.85144806 66807.22158003 2.94760990 206 213 217
53391.86656189 66807.15150023 2.95015001 230 234 236
53391.72276306 66807.04980993 2.95321989 131 131 129
53391.72518158 66807.03382015 2.95336008 130 130 130
53391.80216980 66807.03183985 2.95159006 120 121 120
53391.82421112 66807.02365017 2.94997001 123 124 124
53391.82489777 66807.01662016 2.95064998 125 125 124
53391.82045746 66807.02503014 2.94923997 122 122 122
53391.82584381 66807.07581997 2.94948006 129 128 125
53391.81520081 66807.04198980 2.95082998 125 125 125
53391.84777832 66807.04056978 2.95072007 134 133 129
53391.84966278 66807.05878019 2.94944000 123 123 123
53391.92223358 66807.11171007 2.94722009 115 116 116
53392.01621246 66807.04012012 2.94528008 129 129 128
53391.98957062 66807.04466009 2.94464993 113 113 112
53391.96465302 66807.03002977 2.94777012 121 120 119
53391.99745941 66807.06812000 2.94378996 110 112 111
53391.75579834 66807.01746988 2.95212007 143 140 134
53391.77446747 66807.02751017 2.95215011 132 131 129
53391.74566650 66807.02328014 2.95350003 142 140 134
53391.82588959 66807.01299000 2.95103002 134 134 131
53391.82605743 66807.05069017 2.94924998 134 134 132
53391.81199646 66807.09147978 2.95001006 133 133 133
53391.82348633 66807.07257986 2.95055008 136 135 131
53391.83228302 66807.03458977 2.95025992 130 130 128
53391.89491272 66807.06576014 2.94728994 128 128 127
53391.92178345 66807.11717987 2.94726992 113 115 116
53392.01525116 66807.02587986 2.95455003 68 70 71
53391.99162292 66807.04685020 2.95697999 67 69 72
53391.93093872 66807.08523989 2.95653009 67 68 69
53391.90943146 66807.06462002 2.95854998 65 69 74
53391.86138916 66806.90165997 2.96632004 76 56 24
53391.87358093 66806.88886976 2.96796989 54 48 32
53391.75724030 66806.95785999 2.96336007 107 79 35
53391.81297302 66806.93089008 2.96954989 90 67 32
53391.82472229 66806.92549992 2.96736002 128 104 56
53391.71954346 66807.02398014 2.95982003 104 100 90
53391.98531342 66807.06971979 2.95366001 74 75 78
53391.93276978 66807.10867023 2.95323992 77 78 81
53391.96044922 66807.08760023 2.95488000 77 78 80
53391.88549805 66807.07125998 2.95668006 82 82 84
53391.88871765 66807.06887007 2.95783997 83 84 85
53391.89012146 66807.08559990 2.95474005 72 75 81
53391.96331024 66806.97981024 2.95832992 205 214 218
53391.95697784 66806.96770000 2.95664001 205 214 218
53391.82791138 66807.00131989 2.96066999 78 79 81
53391.86105347 66806.89778996 2.96492004 183 151 89
53391.86620331 66806.89308977 2.96582007 162 134 89
53391.85630035 66806.89946985 2.96721005 163 134 83
53391.82643890 66806.91599989 2.96575999 175 139 82
53391.84787750 66806.90644979 2.96761990 168 141 96
53391.86090088 66806.89222002 2.96882010 162 134 84
53391.80809021 66806.93244982 2.96797991 179 145 94
53391.76506805 66806.95143986 2.97045994 188 153 91
53391.70037079 66807.00311995 2.96557999 172 163 143
53391.84300232 66807.03598022 2.95531988 75 76 80
53391.73811340 66807.00212002 2.95692992 73 74 78
53391.80776978 66806.99175978 2.95606995 78 78 82
53391.72257233 66806.98041010 2.95854998 190 178 160
53391.98822021 66807.06714010 2.95573997 69 72 75
53392.00366211 66807.05628014 2.95565009 65 70 75
53391.83396912 66807.14941978 2.95569992 207 213 216
53391.93026733 66806.91244984 2.95968008 140 146 152
53391.86575317 66807.00937986 2.95912004 205 212 216
53391.82469177 66807.02451992 2.95741010 69 71 75
53391.86009216 66807.05916023 2.95780993 72 74 79
53391.85012054 66807.05991983 2.95861006 72 73 79
53391.80696869 66807.09443998 2.95752001 69 71 76
53391.74062347 66807.05077982 2.95992994 63 65 71
53391.81468201 66807.05752993 2.95747995 69 71 75
53391.89018250 66806.88177013 2.96269011 159 129 74
53391.98935699 66807.02998018 2.95671010 92 92 89
53391.96415710 66807.04983997 2.95623994 81 83 84
53391.85398102 66807.10804987 2.95496988 210 215 219
53391.95321655 66806.92869997 2.95910001 148 152 157
53391.81276703 66807.02683020 2.95849991 81 81 82
53391.80985260 66807.00257015 2.95833993 77 78 80
53391.82701874 66807.00604010 2.95997000 80 80 82
53391.72126770 66807.05998993 2.95971990 126 135 147
53391.73828125 66807.06433010 2.95970011 84 83 83
53391.79244232 66807.08544016 2.95802999 86 85 85
53391.73032379 66807.05184984 2.95898008 80 80 82
53391.81436920 66806.93372011 2.96972990 166 132 78
53391.79575348 66806.94191980 2.97064996 161 126 72
53391.81224823 66806.92638016 2.96864009 162 137 92
53391.75953674 66806.95849991 2.96996999 167 141 94
53392.00969696 66807.09754992 2.94706011 70 73 79
53391.99768829 66807.13044024 2.94585991 74 77 82
53391.80281830 66807.20627022 2.94626999 116 137 163
53392.00042725 66807.02187014 2.94799995 81 81 80
53391.87859344 66806.88109016 2.95828009 128 98 52
53391.96690369 66807.12802982 2.95263004 64 68 73
53391.85108185 66807.22068024 2.94773006 117 135 158
53391.99358368 66806.99862003 2.94758010 79 79 81
53392.00084686 66807.02902985 2.95750999 73 74 75
