53391.76413727 66807.02125502 2.95928192 107 119 120
53391.87491608 66806.95928526 2.94921970 234 247 249
53391.82160950 66807.13723278 2.95060229 234 247 250
53391.93860626 66807.07141352 2.94538498 107 120 121
53391.73290253 66806.96394539 2.95219564 165 168 154
53391.74615479 66806.99417734 2.95880103 111 121 120
53391.86314392 66806.92835855 2.95358396 233 246 248
53391.80983734 66807.10630560 2.95496702 220 238 239
53391.92165375 66807.04436541 2.94586039 120 130 128
53391.70791626 66806.97992134 2.95383000 189 193 179
53391.81599426 66806.92013884 2.95083213 214 223 217
53391.92929840 66806.85750532 2.95269561 135 131 107
53391.76538849 66807.09589911 2.94515061 122 141 144
53391.87969208 66807.03326607 2.94697094 222 233 231
53391.99299622 66806.96963263 2.94886136 150 149 130
53391.83155823 66807.20633459 2.95227098 228 238 237
53391.93968201 66807.14757967 2.95024443 108 121 122
53392.05667877 66807.08176041 2.94502735 159 160 142
53391.67375183 66806.99274445 2.95094037 181 185 170
53391.78333282 66806.93129635 2.95993948 204 211 201
53391.90531921 66806.87348318 2.95428681 189 194 184
53391.73643494 66807.10487080 2.94714952 124 139 139
53391.85073090 66807.04223871 2.94896984 202 218 218
53391.95880890 66806.98245621 2.94597244 205 213 208
53391.79743195 66807.21918535 2.95038009 209 218 214
53391.91068268 66807.15652370 2.95124483 195 210 208
53392.02249908 66807.09458399 2.94213796 207 219 215
53391.71968842 66807.01084852 2.94946599 145 155 155
53391.83299255 66806.94821405 2.95132875 235 248 249
53391.94724274 66806.88455486 2.95217776 141 140 117
53391.77967834 66807.12516117 2.95273948 218 235 236
53391.89669037 66807.06034184 2.94749451 125 136 135
53392.01094055 66806.99668264 2.94834375 121 118 101
53391.84336853 66807.23728895 2.94890499 190 197 189
53391.95662689 66807.17462730 2.94976974 119 124 115
53392.07363129 66807.10880852 2.94455290 146 142 117
53391.71492004 66806.93686819 2.95171475 167 162 132
53391.82921600 66806.87423468 2.95353460 146 143 118
53391.77490234 66807.05218029 2.95496058 106 120 122
53391.89190674 66806.98636150 2.94974375 235 247 249
53391.83859253 66807.16430759 2.95112658 235 247 249
53391.95559692 66807.09848928 2.94590926 106 119 120
53391.87352753 66807.21843338 2.95113277 197 204 194
53391.98160553 66807.15865088 2.94813538 143 151 140
53392.09860992 66807.09383106 2.94289017 150 141 109
53391.84616089 66806.90128326 2.95306015 206 216 210
53391.78811646 66807.00527668 2.95769072 114 127 127
53391.90507507 66806.93943024 2.95147443 234 247 249
53391.85176086 66807.11737680 2.95285749 235 249 251
53391.96257782 66807.05643511 2.94376659 105 118 119
53391.79284668 66807.07922935 2.95444322 123 143 147
53391.90985107 66807.01341105 2.94922566 219 229 226
53391.74507141 66806.91801167 2.95394206 165 160 130
53391.85936737 66806.85438013 2.95578980 135 131 107
53391.80506897 66807.03232479 2.95721579 111 125 128
53391.91688538 66806.97038507 2.94810915 236 248 249
53391.86875916 66807.14445257 2.95338154 236 249 250
53391.98057556 66807.08351231 2.94424701 112 125 127
53391.85653687 66807.19135714 2.95060873 238 248 248
53391.96736908 66807.12941599 2.94154501 116 130 129
53391.70249939 66807.05074739 2.94710040 147 157 155
53391.81579590 66806.98711300 2.94899106 208 222 221
53391.93406677 66806.93148565 2.95044684 213 225 220
53391.76249695 66807.16506004 2.95037413 233 244 241
53391.87574005 66807.10239840 2.95123863 180 196 196
53391.99275208 66807.03658009 2.94602084 132 143 141
53391.69073486 66807.01982021 2.95146441 197 207 202
53391.80399323 66806.95615911 2.95235682 214 227 225
53391.91708374 66806.90440989 2.94992304 198 208 204
53391.75441742 66807.13194799 2.94763064 216 229 227
53391.86496735 66807.07147360 2.95555973 183 198 198
53391.97977448 66807.01653624 2.94613147 121 128 124
53391.81436920 66807.24623346 2.94990540 189 195 184
53391.92768097 66807.18359900 2.95176888 173 179 170
53392.03575897 66807.12381697 2.94877100 161 165 149
53391.77037811 66806.91125250 2.96004939 161 158 130
53391.88732910 66806.84640598 2.95380640 140 135 110
53391.71945190 66807.07779503 2.94662547 116 127 126
53391.83374786 66807.01416254 2.94847345 204 218 218
53391.94703674 66806.95152950 2.95033622 224 235 231
53391.77943420 66807.19210815 2.94989944 224 234 230
53391.89373779 66807.12947559 2.95171976 186 202 201
53392.00455475 66807.06753397 2.94265604 175 189 187
53391.75936127 66806.94727421 2.96153069 144 148 134
53391.87014771 66806.88530493 2.95146799 200 208 203
53391.81682587 66807.06325197 2.95285153 133 152 155
53391.93383026 66806.99743271 2.94763422 216 225 222
53391.88052368 66807.17537928 2.94901705 238 249 249
53391.99752045 66807.11055994 2.94377255 166 180 180
53391.73667908 66807.03792429 2.94998932 105 117 118
53391.85092926 66806.97526407 2.95081139 234 247 249
53391.95805359 66806.91550732 2.94885540 155 154 132
53391.79663086 66807.15220928 2.95226502 235 247 249
53391.91362000 66807.08738995 2.94701982 107 121 122
53392.02175140 66807.02763510 2.94502044 135 137 120
53391.85661316 66807.26652193 2.95553851 119 114 90
53391.77113342 66806.97820139 2.95716643 118 128 127
53391.88813782 66806.91238260 2.95194960 221 235 236
53391.83381653 66807.09032679 2.95337534 225 241 242
53391.95182037 66807.02550983 2.94808745 118 127 125
53391.89751434 66807.20245504 2.94954157 205 211 201
53392.01177216 66807.13979435 2.95036292 153 160 148
53391.69094086 66806.95284605 2.95330596 157 151 122
53391.80422974 66806.89021206 2.95516968 154 151 125
53391.91231537 66806.83042908 2.95217180 125 116 88
53391.75462341 66807.06497335 2.94947219 105 118 120
53391.86791992 66807.00233984 2.95133471 236 248 249
53391.97599792 66806.94255686 2.94833732 144 144 124
53391.81461334 66807.17928648 2.95274544 236 247 249
53391.92168427 66807.12050152 2.94976377 107 121 123
53392.03969574 66807.05468416 2.94450307 143 146 130
