53395.54589081 66805.71812010 2.90981007 154 132 84
53395.62074280 66805.68922997 2.90242004 54 47 32
53395.52554321 66805.70694017 2.91398001 113 96 64
53395.49279022 66805.75049019 2.91418004 87 73 41
53395.51329041 66805.70472002 2.91057992 160 136 84
53395.54731750 66805.74293995 2.91245008 42 29 10
53395.54936218 66805.74806976 2.90184999 162 139 90
53395.54180145 66805.74667978 2.91208005 15 13 6
53395.45245361 66805.78838015 2.94027996 9 8 5
53395.45205688 66805.80976009 2.93397999 54 50 34
53395.39615631 66805.80718994 2.93796992 9 8 5
53395.45246887 66805.82254982 2.93128991 107 97 72
53395.45272064 66805.82042980 2.93054008 126 114 86
53395.36475372 66805.89047003 2.94993997 114 93 51
53395.34568787 66805.90805006 2.95207000 54 42 24
53395.35877228 66805.87776995 2.95527005 80 65 36
53395.34851837 66805.85592985 2.95250010 137 117 75
53395.36509705 66805.88013983 2.95388007 132 108 64
53395.32937622 66805.88434982 2.96322989 10 9 6
53395.35431671 66805.84978008 2.94947004 88 75 46
53395.35984802 66805.84874010 2.95178008 65 55 35
53395.24974060 66805.90492010 2.97011995 38 30 15
53395.28253174 66805.95427990 2.97202992 37 31 20
53395.28405762 66805.91725016 2.98122001 37 35 28
53395.31891632 66805.92384005 2.95537996 77 72 50
53395.30956268 66805.85598993 2.95689011 44 45 37
53395.28874969 66805.93796015 2.97393990 20 16 9
53395.30049133 66805.86101007 2.95497990 34 33 26
53395.28575134 66805.92420006 2.97093010 5 5 3
53395.26901245 66805.87961006 2.95233989 111 97 70
53395.25019836 66805.96407986 2.97450995 75 54 21
53395.19170380 66805.92748022 2.94967008 26 22 14
53395.23818207 66805.92623997 2.96407008 76 66 43
53396.12148285 66805.30931997 2.88775992 19 19 13
53396.00028992 66805.38414001 2.89545012 42 42 32
53396.00437927 66805.38127995 2.89605999 28 28 22
53395.98246765 66805.37755013 2.89475989 38 38 33
53395.97882080 66805.39635992 2.89843988 25 25 20
53395.98246765 66805.39532995 2.89909005 25 26 21
53395.85458374 66805.40951014 2.87678003 25 18 10
53395.84855652 66805.41298008 2.87438989 105 88 60
53395.91468048 66805.38317013 2.87503004 98 79 42
53395.91468048 66805.39444017 2.86643004 147 132 99
53395.82080841 66805.42767000 2.87431002 112 92 58
53395.81803894 66805.43060017 2.87257004 162 142 101
53395.81105042 66805.44200993 2.87248993 59 52 32
53395.81633759 66805.43949986 2.87300992 37 36 29
53395.72934723 66805.48719978 2.88671994 103 87 52
53395.75456238 66805.54925013 2.89626002 110 91 56
53395.76325226 66805.54582024 2.89792991 138 117 83
53395.75186157 66805.53707981 2.89620996 120 104 70
53395.75473022 66805.53915024 2.89709997 118 98 61
53395.75715637 66805.54368019 2.89727998 71 64 43
53395.69595337 66805.51117992 2.88995004 69 59 45
53395.69999695 66805.51494980 2.89043999 55 43 32
53395.65242004 66805.54674006 2.89190006 48 39 25
53395.64524078 66805.55780983 2.90040994 10 8 4
53395.59844971 66805.57014990 2.89071012 112 101 78
53395.66050720 66805.59313011 2.90616989 11 10 8
53395.62452698 66805.60656977 2.89978004 148 130 94
53395.61689758 66805.55177021 2.88940001 149 131 94
53395.62953186 66805.61294985 2.90056992 133 110 73
53395.63217926 66805.60665989 2.90009999 125 102 64
53395.62570953 66805.61686993 2.89998007 77 68 45
53395.62802887 66805.61042976 2.90114999 114 96 62
53395.61470032 66805.55855989 2.88965988 43 39 31
53395.60691071 66805.61343002 2.90363002 82 75 53
53395.62802124 66805.62126017 2.90021992 92 80 55
53395.54512787 66805.65847015 2.91078997 132 113 74
53395.52648926 66805.65696001 2.91211009 52 46 33
53395.54882813 66805.66286993 2.91106009 118 103 70
53395.51097870 66805.64768982 2.91985011 32 25 14
53395.54279327 66805.65592003 2.91055989 91 76 53
53395.53903961 66805.68636990 2.90936995 107 93 70
53395.55639648 66805.66164017 2.90953994 116 92 53
53395.51801300 66805.69520998 2.91092992 136 109 62
53395.51669312 66805.69834995 2.91165996 138 110 60
53395.47693634 66805.69853020 2.91672993 115 93 57
53395.48105621 66805.68282986 2.91897011 128 109 70
53395.48235321 66805.67933989 2.91954994 132 109 75
53395.49307251 66805.67749977 2.91594005 122 105 70
53395.41190338 66805.70015001 2.93315005 27 21 8
53395.42917633 66805.74525976 2.93337011 17 17 13
53395.38860321 66805.78795004 2.93651009 59 48 25
53395.43540955 66805.70800018 2.91959000 36 30 19
53395.44251251 66805.72468996 2.91692996 151 133 94
53395.31723022 66805.82085991 2.95426989 17 15 10
53395.30757904 66805.79683018 2.95275998 73 59 37
53395.30516052 66805.82199001 2.95668006 8 7 3
53395.34860992 66805.80338001 2.94886994 103 85 54
53395.33647156 66805.79324007 2.94625998 72 60 31
53395.33650970 66805.80291986 2.94250011 64 55 34
53395.31697083 66805.84083986 2.95226002 119 102 66
53395.32187653 66805.79031992 2.94321990 153 129 81
53395.29792023 66805.85464001 2.95383000 62 46 21
53395.28202820 66805.85514021 2.95500994 136 117 77
53395.24063873 66805.82285023 2.94788003 106 83 39
53395.21945190 66805.83087015 2.95415998 69 63 46
53395.22885132 66805.84416008 2.94789004 29 29 22
53395.27059937 66805.85470009 2.95322990 96 85 60
53395.18910217 66805.90093994 2.94962001 99 78 41
53395.15744781 66805.88093996 2.95700002 111 98 69
53395.90119171 66805.31493998 2.85061002 130 112 82
53395.92722321 66805.31328011 2.83269000 96 85 58
53395.92006683 66805.30596018 2.83401990 123 111 74
53395.92835236 66805.31106997 2.83098006 52 49 37
53395.90312958 66805.33357000 2.85955000 109 98 68
53395.90312195 66805.31011009 2.84653997 114 102 70
53395.90438843 66805.31890011 2.84835005 152 136 108
53395.91329193 66805.33016014 2.85001993 108 96 68
53395.84658051 66805.37529993 2.89093995 92 78 52
53395.84557343 66805.36953020 2.89177990 21 17 11
53395.82231140 66805.36909008 2.88871002 83 74 56
53395.83824158 66805.37497997 2.88965011 116 99 68
53395.85678864 66805.38001013 2.88835001 114 99 69
53395.84509277 66805.39268017 2.88899994 118 103 67
53395.86611938 66805.38643980 2.88862991 100 82 53
53395.81183624 66805.42288017 2.88719010 165 138 91
53395.77578735 66805.44017982 2.88948011 170 148 106
53395.81125641 66805.39232016 2.88896990 84 72 50
53395.77375031 66805.39947987 2.88534999 131 121 98
53395.79055786 66805.37944984 2.88764000 128 111 76
53395.81214142 66805.38483000 2.88849998 118 98 60
53395.81894684 66805.39441013 2.88962007 100 83 49
53395.76010895 66805.45033979 2.89365005 115 95 67
53395.69689178 66805.46320009 2.89462996 137 117 79
53395.73446655 66805.46735001 2.88651991 132 109 73
53395.70635223 66805.48129988 2.89211011 144 120 78
53395.71308136 66805.45230007 2.89304996 138 118 92
53395.71411896 66805.42493010 2.88797998 91 77 50
53395.70298004 66805.45978022 2.89299011 122 102 69
53395.72534943 66805.45818996 2.89137006 109 95 66
53395.71401215 66805.43658018 2.88868999 93 84 62
53395.72843933 66805.47204018 2.88908005 84 69 46
53395.70628357 66805.46687984 2.89259005 118 102 71
53395.67093658 66805.48134995 2.90098000 104 79 49
53395.67521667 66805.50274992 2.89699006 139 112 78
53395.66516876 66805.49821997 2.90187001 157 131 89
53395.68933868 66805.50538015 2.89042997 97 79 55
53395.68473816 66805.46370983 2.89749002 102 87 62
53395.68713379 66805.46822977 2.89735007 103 80 57
53395.69096375 66805.50264978 2.89299011 138 117 84
53395.69049072 66805.49396992 2.89481997 126 100 76
53395.66439056 66805.48353004 2.90164995 71 59 39
53395.68788147 66805.49561977 2.89443994 100 76 54
53395.68615723 66805.51239014 2.89175010 92 68 39
53395.66166687 66805.46331978 2.90390992 16 11 6
53395.67285156 66805.51034021 2.89673996 139 118 82
53395.67498779 66805.46996021 2.89859009 149 112 83
53395.61696625 66805.54951000 2.88928008 115 97 67
53395.57723999 66805.52944994 2.90978003 112 93 65
53395.57647705 66805.54145002 2.90700006 126 112 78
53395.56951141 66805.53329992 2.90802002 63 60 48
53395.57810974 66805.53621006 2.90871000 119 104 70
53395.58596039 66805.53961992 2.90894008 65 56 37
53395.53935242 66805.54053020 2.90932012 105 93 70
53395.52271271 66805.59608984 2.89225006 110 89 55
53395.43312073 66805.65358019 2.91968989 152 135 99
53395.48312378 66805.63313007 2.91918993 142 121 84
53395.47350311 66805.64187002 2.91855001 143 120 80
53395.43260193 66805.64885998 2.92014003 145 122 82
53395.46598053 66805.62641001 2.91934991 145 121 77
53395.44200134 66805.64046001 2.91915011 136 121 83
53395.47833252 66805.59852982 2.91249990 29 26 17
53395.35578918 66805.67595005 2.92319012 146 122 80
53395.40785980 66805.66758013 2.94036007 116 98 61
53395.35162354 66805.67038012 2.92509007 154 131 87
53395.35727692 66805.65749979 2.92940998 106 86 50
53395.36943817 66805.67209005 2.92727995 144 121 80
53395.37342834 66805.65021992 2.93332005 136 109 68
53395.33747864 66805.66842985 2.92989993 109 92 58
53395.34362793 66805.67785978 2.92469001 149 128 91
53395.36795807 66805.66806984 2.92949009 131 108 64
53395.38265228 66805.66536999 2.93144011 74 62 39
53395.36740875 66805.65799999 2.93057990 56 49 36
53395.33609772 66805.71973991 2.94431996 7 6 4
53395.30909729 66805.69147015 2.93858004 12 12 10
53395.32375336 66805.73765993 2.94847012 41 36 21
53395.28575134 66805.76371002 2.95284009 27 26 20
53395.33799744 66805.68822002 2.92785001 29 26 18
53395.28723907 66805.73087978 2.94874001 163 138 90
53395.33325958 66805.67892981 2.92394996 149 131 92
53395.24173737 66805.76242018 2.95196009 72 56 30
53395.27348328 66805.77088022 2.94868994 130 112 73
53395.22757721 66805.76766014 2.95291996 35 31 19
53395.26004028 66805.72977018 2.95456004 60 46 21
53395.22750854 66805.77652979 2.95221996 136 119 84
53395.26216888 66805.75014019 2.95060992 159 132 84
53395.19819641 66805.77664995 2.94854999 70 63 45
53395.18968964 66805.77054977 2.94872999 36 35 27
53395.18084717 66805.83932018 2.96632004 88 70 35
53395.86396027 66805.29703999 2.84958005 174 149 99
53395.81372070 66805.33719015 2.89131999 100 77 45
53395.84516907 66805.32037020 2.85723996 138 119 83
53395.80132294 66805.32766008 2.89305997 81 71 47
53395.84091187 66805.31548023 2.85771990 105 96 76
53395.81793213 66805.34392023 2.89022994 126 117 96
53395.80619049 66805.33728981 2.89203000 142 123 87
53395.83757782 66805.31699991 2.85905004 90 80 57
53395.73667145 66805.38059998 2.89160991 131 116 87
53395.75771332 66805.38259983 2.89071989 121 99 62
53395.76727295 66805.35481024 2.88883996 107 91 65
53395.73748016 66805.37875986 2.89322996 146 131 100
53395.76570892 66805.38571978 2.88900995 40 33 20
53395.75682068 66805.35659981 2.89683008 144 123 82
53395.79807281 66805.35150003 2.89022994 103 90 59
53395.79142761 66805.34039021 2.89106989 143 125 87
53395.80233765 66805.36474991 2.88912010 132 112 78
53395.78244781 66805.35602999 2.88674998 113 97 65
53395.79190063 66805.35311985 2.88817000 86 77 56
53395.69862366 66805.42468023 2.89258003 94 72 39
53395.72670746 66805.41247988 2.88771009 130 113 80
53395.72718048 66805.39646006 2.89349008 96 79 51
53395.67960358 66805.41604996 2.89566994 52 45 30
53395.66998291 66805.44208002 2.89791012 25 19 11
53395.64917755 66805.44856977 2.90093994 98 79 57
53395.64369202 66805.43377018 2.89983010 103 81 56
53395.64589691 66805.43355989 2.89864993 88 69 50
53395.54348755 66805.51054001 2.90874004 39 29 16
53395.56501770 66805.51816988 2.90932989 37 30 16
53395.49716187 66805.55242014 2.90723991 168 149 108
53395.53040314 66805.52966022 2.90838003 110 94 67
53395.50164795 66805.54878998 2.90702009 119 95 60
53395.51780701 66805.53634977 2.90798998 103 90 66
53395.49503326 66805.53867006 2.91123009 133 117 88
53395.35090637 66805.65614986 2.92914009 124 102 64
53395.33815765 66805.66321993 2.92783999 171 142 93
53395.29640961 66805.67922020 2.93259001 68 59 39
53395.30159760 66805.67668009 2.93959999 34 28 21
53395.19918060 66805.75079012 2.94835997 19 16 10
53395.24414063 66805.71282005 2.95004010 131 110 66
53395.19262695 66805.74878979 2.95160007 33 32 24
53395.17127228 66805.75410986 2.95196009 22 22 17
53395.17198944 66805.76905012 2.94819999 141 122 82
53395.95810699 66805.69027996 2.89284992 192 163 107
53395.88231659 66805.75409985 2.90241003 199 172 118
53395.88417053 66805.76357985 2.90366006 133 116 78
53395.89430237 66805.73293018 2.90013003 189 161 109
53395.88645935 66805.73820019 2.90180993 207 178 123
53395.84477234 66805.76587009 2.90963006 213 184 130
53395.80233765 66805.82132006 2.91443992 185 154 99
53395.81066132 66805.79760981 2.91856003 162 131 81
53395.80903625 66805.82427979 2.91401005 143 114 71
53395.80650330 66805.82826996 2.91456008 183 154 109
53395.81990051 66805.78333998 2.91283989 159 129 89
53395.79399109 66805.82125998 2.91528010 207 179 131
53395.74530029 66805.83225012 2.91499996 145 120 84
53395.78623962 66805.80742979 2.91491008 169 140 86
53395.71440125 66805.88822985 2.92133999 178 151 106
53395.70390320 66805.85846996 2.91774988 155 137 108
53395.70027924 66805.86221981 2.91716003 178 149 99
53395.68717957 66805.87908983 2.91305995 169 140 90
53395.69905853 66805.85345984 2.91677999 208 183 142
53395.69455719 66805.86767006 2.91434002 217 183 120
53395.70673370 66805.86690998 2.91998005 130 104 67
53395.68551636 66805.86085987 2.91406012 204 176 121
53395.71597290 66805.87622976 2.92016006 185 157 103
53395.61744690 66805.92035007 2.93423009 195 164 107
53395.57119751 66805.95355988 2.91834998 177 153 107
53395.60430908 66805.91908979 2.92586994 167 145 104
53395.57975006 66805.96899986 2.92167997 178 155 114
53395.57144165 66805.94128990 2.91739988 178 158 119
53395.52153778 66805.98681021 2.93548989 205 174 114
53395.49732208 66805.98892021 2.93896008 179 153 107
53395.56862640 66805.97044992 2.92460990 149 125 82
53395.56945801 66805.97492981 2.92386007 194 161 101
53395.49857330 66806.01718998 2.94130993 201 175 119
53395.53733826 66806.00997019 2.92651010 206 174 117
53395.49912262 66806.00923014 2.94287992 175 145 90
53395.44139862 66806.04324007 2.94742990 172 146 97
53395.42958832 66806.03596020 2.95299006 184 156 104
53395.46347809 66806.06085014 2.94614005 168 133 73
53395.46602631 66806.03738022 2.94279003 164 135 85
53395.35816193 66806.12512016 2.94577003 234 215 176
53395.39057159 66806.07386017 2.94817996 197 175 126
53395.36002350 66806.10388994 2.94758010 213 190 139
53395.34683990 66806.11354017 2.94711995 198 174 115
53395.34255981 66806.13255978 2.94189000 123 96 55
53395.36528778 66806.06978989 2.95075989 212 186 133
53395.34095001 66806.10116005 2.94711995 206 186 150
53395.38468933 66806.09193993 2.94896007 156 135 96
53395.34970856 66806.11913013 2.94282007 167 145 104
53395.35167694 66806.09106016 2.94807005 212 188 137
53395.28018188 66806.11661005 2.94398999 202 151 104
53395.31051636 66806.12251997 2.95034003 196 156 113
53395.31430054 66806.10414982 2.94754004 81 75 54
53395.32341003 66806.11990976 2.95151997 192 160 104
53395.29960632 66806.16740990 2.94616008 149 122 77
53395.32420349 66806.14343977 2.95328999 176 143 87
53395.29035187 66806.12816000 2.94841003 138 102 81
53395.30518341 66806.12884998 2.94985008 153 114 85
53395.33084869 66806.11804008 2.94842005 181 150 93
53395.29476929 66806.14045000 2.94909000 187 122 93
53395.30275726 66806.13138008 2.94926000 126 96 66
53396.00691223 66805.63089991 2.89918995 124 98 56
53396.00192261 66805.61998987 2.89260006 212 186 135
53395.99774170 66805.61785984 2.89334989 134 109 64
53396.03562164 66805.59696007 2.85450006 168 141 96
53396.01602936 66805.63137007 2.89454007 195 161 99
53396.03150940 66805.58864021 2.85262990 177 152 111
53395.99411011 66805.61534023 2.89313006 155 128 81
53396.03125000 66805.64448977 2.89386010 182 150 89
53396.00193787 66805.63875008 2.89523005 213 182 118
53395.94927979 66805.66141987 2.89161992 123 107 78
53395.95020294 66805.68694019 2.89008999 160 139 103
53395.93753052 66805.66027021 2.88976002 189 165 119
53395.88468170 66805.71720982 2.89859009 141 116 75
53395.88088226 66805.71679020 2.89931011 187 162 118
53395.84903717 66805.68416977 2.89959002 193 163 109
53395.88410950 66805.70875978 2.90119004 135 109 68
53395.88350677 66805.69680023 2.89901996 132 110 72
53395.86193085 66805.72183990 2.90002990 215 186 132
53395.88796234 66805.71404982 2.89832997 160 143 110
53395.87329865 66805.70533991 2.90040994 215 189 141
53395.88646698 66805.70653009 2.90068007 153 128 79
53395.81442261 66805.69795990 2.89570999 154 131 89
53395.79206085 66805.71872997 2.90153003 164 133 87
53395.80837250 66805.70410013 2.89550996 179 157 118
53395.85066986 66805.75383997 2.90878010 174 148 105
53395.79026794 66805.73849010 2.90314007 209 178 127
53395.79678345 66805.71060991 2.90136003 135 103 70
53395.85030365 66805.72845984 2.90479994 207 179 128
53395.84889221 66805.76335001 2.91023993 199 170 120
53395.81524658 66805.70100021 2.89595008 181 157 111
53395.75949860 66805.72152996 2.89890003 179 148 95
53395.81440735 66805.70142984 2.89668012 183 158 113
53395.70086670 66805.83133984 2.91904998 244 239 231
53395.74935150 66805.74827003 2.90564990 200 169 115
53395.73049164 66805.77258015 2.90690994 222 196 145
53395.75109100 66805.77149010 2.90830994 187 157 109
53395.69686890 66805.77486992 2.91061997 211 185 133
53395.70794678 66805.77604008 2.90758991 181 155 111
53395.70716858 66805.80596018 2.91687989 153 128 80
53395.71427917 66805.82917976 2.91967010 168 136 81
53395.73863983 66805.78938007 2.90953994 193 161 106
53395.69544220 66805.78695011 2.91473007 145 118 78
53395.74111176 66805.81648016 2.91231990 184 158 114
53395.68504333 66805.77917004 2.91230989 216 189 136
53395.69286346 66805.84481001 2.91554999 205 189 159
53395.66789246 66805.85137987 2.91476989 200 169 111
53395.64366150 66805.85952997 2.91476011 151 123 76
53395.68963623 66805.83015013 2.91819000 140 119 84
53395.69725037 66805.84151983 2.91545010 150 128 84
53395.68591309 66805.84158993 2.91852999 209 181 128
53395.62699127 66805.82241011 2.92159009 104 86 56
53395.59709167 66805.84989023 2.91909003 129 108 75
53395.58854675 66805.91664982 2.92660999 226 195 135
53395.57276154 66805.84741020 2.91860008 97 82 56
53395.58103943 66805.83936024 2.91823006 207 182 133
53395.57618713 66805.85384989 2.91939998 189 166 125
53395.59922791 66805.84789991 2.91955996 178 147 91
53395.61000824 66805.86596012 2.92176008 211 183 130
53395.47383881 66805.94500017 2.93861008 215 195 153
53395.47796631 66805.95550013 2.93870997 174 144 93
53395.47419739 66805.96219015 2.93948007 216 191 142
53395.46166992 66805.93290997 2.94253993 190 162 109
53395.50302124 66805.97282982 2.93706989 200 166 97
53395.43829346 66805.96541023 2.94122005 206 182 132
53395.39433289 66805.96452999 2.94589996 189 164 116
53395.38089752 66806.01827002 2.95153999 141 121 82
53395.33158112 66806.00547981 2.94864011 138 115 65
53395.33895874 66806.00353003 2.94968009 189 167 119
53395.33193970 66806.05214977 2.94724011 204 174 121
53395.34500122 66806.00934982 2.94402003 239 222 190
53395.26725769 66806.10877991 2.94084001 193 134 109
53395.29595184 66806.03138018 2.94777989 188 157 101
53395.29181671 66806.05594015 2.94552994 164 142 102
53395.28926849 66806.08921003 2.94483995 197 170 116
53396.21382904 66805.43351984 2.89576006 170 157 120
53396.20501709 66805.45291996 2.89970994 172 155 117
53396.19786835 66805.44014978 2.89853001 156 145 116
53396.18427277 66805.44742012 2.89943004 158 146 110
53396.18459320 66805.45564985 2.90209007 168 142 92
53396.05579376 66805.50659990 2.89605999 156 133 89
53396.04223633 66805.49423981 2.89673996 220 193 136
53396.03132629 66805.49791002 2.90035009 137 115 71
53396.05619812 66805.49558020 2.89723992 185 158 103
53396.05410004 66805.50629997 2.89772010 136 110 62
53395.95825958 66805.55320978 2.87963009 218 187 128
53395.98005676 66805.52802992 2.88657999 171 140 96
53396.00855255 66805.49120998 2.89443994 153 123 77
53395.88939667 66805.60040998 2.87683010 163 140 95
53395.86479187 66805.57224989 2.88993001 170 141 90
53395.94966888 66805.56215000 2.87402010 171 149 102
53395.90576935 66805.56702995 2.89198995 169 139 87
53395.95256805 66805.56488991 2.87466002 182 163 126
53395.93105316 66805.55263996 2.89075994 167 137 86
53395.90453339 66805.60092020 2.87614012 151 128 85
53395.82563782 66805.59986019 2.89593005 134 108 71
53395.81005859 66805.62681007 2.89945006 102 89 63
53395.80690765 66805.60567999 2.89700007 171 142 91
53395.85787964 66805.62636995 2.87856007 169 145 104
53395.80419159 66805.61299992 2.89388990 156 132 100
53395.81675720 66805.61596012 2.89741993 175 148 103
53395.83056641 66805.65993023 2.89572001 158 134 92
53395.83164215 66805.60079002 2.89484000 175 142 92
53395.81519318 66805.60475016 2.89827991 156 132 93
53395.80162048 66805.61899996 2.89761996 151 129 95
53395.78695679 66805.67745018 2.89408994 156 127 88
53395.77143097 66805.69001007 2.89374995 178 149 93
53395.74568176 66805.71780014 2.89847994 199 166 108
53395.74098969 66805.65037012 2.90104008 186 146 94
53395.79665375 66805.65636015 2.89346004 218 179 130
53395.77971649 66805.70108986 2.89584994 194 166 115
53395.78259277 66805.64222002 2.89808011 182 128 92
53395.74067688 66805.70886993 2.89825010 211 178 123
53395.80534363 66805.66288996 2.89209008 218 183 145
53395.77993774 66805.64939022 2.89499998 194 160 122
53395.67389679 66805.70085001 2.91138005 225 203 161
53395.65495300 66805.72518015 2.91126990 197 167 114
53395.73705292 66805.71497011 2.89784002 148 131 97
53395.66587067 66805.69941998 2.90891004 225 195 136
53395.65908051 66805.73215008 2.91062999 204 177 121
53395.67974854 66805.70056009 2.91021991 181 155 111
53395.68668365 66805.76370001 2.91020012 200 170 115
53395.65506744 66805.71520996 2.90806007 186 156 103
53395.60485077 66805.81363010 2.91978002 165 135 91
53395.62284851 66805.74386978 2.91050005 210 178 117
53395.56063843 66805.84272003 2.91866994 189 160 108
53395.55718231 66805.84723997 2.92044997 181 157 110
53395.54821014 66805.78704023 2.91283011 213 189 145
53395.57272339 66805.82438993 2.91683006 202 177 120
53395.45861053 66805.89132023 2.95036006 151 129 85
53395.45554352 66805.91738987 2.94519997 180 151 92
53395.42620850 66805.87345982 2.94513011 132 108 67
53395.40087128 66805.88631010 2.94829988 179 152 110
53395.40263367 66805.93444014 2.94980001 154 130 85
53395.41165161 66805.92943001 2.95004010 178 147 99
53395.39073944 66805.88431978 2.94515991 117 98 66
53395.41177368 66805.92398977 2.95102000 138 111 67
53395.34275818 66805.98644018 2.95642996 176 148 96
53395.33463287 66805.99344015 2.95320010 121 100 67
53395.33486938 66805.96406984 2.95742011 169 141 89
53395.32792664 66806.00112009 2.95117998 146 115 67
53395.36821747 66805.97960997 2.95078993 211 182 132
53395.26516724 66806.01615000 2.94967008 143 119 83
53395.23459625 66805.99674988 2.95514989 150 125 80
53395.23671722 66805.99422979 2.95675993 136 117 74
53396.01036072 66805.45682001 2.89621997 158 134 91
53395.90859985 66805.49031019 2.89446998 159 132 89
53395.85782623 66805.49476004 2.88961005 185 155 100
53395.88572693 66805.48739004 2.89188004 154 128 83
53395.89556885 66805.51468992 2.89484000 181 154 104
53395.88215637 66805.49521017 2.89281988 137 111 69
53395.75704956 66805.55307007 2.89567995 149 127 88
53395.78736877 66805.61513996 2.89794993 180 156 115
53395.81114197 66805.57023001 2.89376998 172 146 105
53395.82022095 66805.53297997 2.89679003 160 140 105
53395.78511810 66805.56719017 2.89653993 162 138 104
53395.78704834 66805.59382010 2.89807010 187 156 109
53395.80048370 66805.58603001 2.89664006 166 142 101
53395.74859619 66805.58332014 2.89737010 169 138 102
53395.75003052 66805.60350990 2.90316010 132 107 74
53395.76624298 66805.60804987 2.89871001 177 154 123
53395.75032043 66805.58053017 2.89862990 166 138 93
53395.74526978 66805.62249994 2.90282011 134 111 78
53395.68753052 66805.60718012 2.90525007 145 111 67
53395.68955231 66805.60656023 2.90392995 203 175 124
53395.76068115 66805.58453989 2.89963007 129 109 77
53395.76136780 66805.61309004 2.89962006 186 156 107
53395.73644257 66805.57147980 2.89545989 157 130 96
53395.69470215 66805.61192989 2.90193009 192 170 125
53395.74398804 66805.62543011 2.90233994 161 126 79
53395.65123749 66805.68080997 2.90325999 165 143 100
53395.63002777 66805.66095018 2.90543008 187 160 111
53395.66892242 66805.67822981 2.90359998 148 130 96
53395.63332367 66805.62996006 2.89998007 158 135 94
53395.62344360 66805.64911985 2.90401006 142 116 78
53395.65988922 66805.68461990 2.90425992 169 149 115
53395.65756989 66805.61781979 2.89892006 142 122 88
53395.64678955 66805.67937994 2.90268993 151 129 91
53395.63014984 66805.67406988 2.90122008 181 153 104
53395.63343048 66805.65380001 2.90440989 170 144 99
53395.66297913 66805.61996984 2.90159988 145 121 87
53395.62074280 66805.64938021 2.90493011 119 101 66
53395.66568756 66805.68601990 2.90416002 169 143 97
53395.55119324 66805.73365021 2.90960002 181 151 95
53395.58619690 66805.69961023 2.90576005 144 118 80
53395.57398224 66805.72758007 2.90373993 167 144 104
53395.61862946 66805.68535995 2.90237999 213 189 142
53395.59072876 66805.68202019 2.90924001 209 183 134
53395.59844971 66805.70355988 2.90344000 208 180 126
53395.55908966 66805.68373013 2.90877008 207 184 141
53395.55825806 66805.73300982 2.90637994 143 115 68
53395.52723694 66805.70477009 2.91108990 219 192 144
53395.52372742 66805.73916006 2.90783000 215 190 145
53395.52439117 66805.70446014 2.91297007 124 100 63
53395.47976685 66805.73830986 2.91740990 136 111 73
53395.48309326 66805.75461006 2.92030001 181 154 105
53395.51995087 66805.70031977 2.91090989 132 113 76
53395.54857635 66805.73725986 2.91341996 177 147 93
53395.46418762 66805.75026989 2.91811991 165 136 83
53395.46772766 66805.75267982 2.91801000 132 107 69
53395.40263367 66805.81269979 2.93729997 184 157 108
53395.47583008 66805.79514980 2.92875004 145 124 84
53395.40374756 66805.80235004 2.93484998 177 155 112
53395.44979858 66805.80681992 2.93440008 218 195 149
53395.45381165 66805.81922007 2.93127990 162 136 91
53395.45391846 66805.82365990 2.93048000 178 155 114
53395.35733795 66805.87265015 2.95467997 190 162 120
53395.35794067 66805.84507990 2.94923997 160 133 88
53395.36682892 66805.88457012 2.95262003 195 167 117
53395.36341095 66805.84930992 2.95092010 187 156 100
53395.38630676 66805.80673981 2.93562007 145 122 82
53395.27239990 66805.94995022 2.96871996 192 161 104
53395.29872131 66805.91437006 2.96657991 123 105 65
53395.28394318 66805.93705988 2.97054005 203 169 105
53395.33197784 66805.89554977 2.95614004 212 182 127
53395.25533295 66805.91739988 2.96161008 189 163 114
53395.25837708 66805.96372986 2.97150993 210 178 115
53395.24249268 66805.93065977 2.96471000 113 86 47
53395.22660828 66805.97971010 2.96199989 198 169 105
53395.18305969 66805.92173004 2.94770002 174 152 110
53395.23518372 66805.92406988 2.96167994 183 158 109
53395.18679810 66805.91641998 2.94568992 177 154 104
53395.97795105 66805.39249992 2.89798999 82 85 80
53395.88755035 66805.46761990 2.89076996 143 116 75
53395.81816101 66805.43620014 2.87191010 208 191 157
53395.85209656 66805.47791004 2.89026999 143 117 74
53395.84265900 66805.42924023 2.87311006 112 88 57
53395.86598206 66805.47639990 2.88631010 167 144 101
53395.87243652 66805.47662020 2.88989997 160 134 92
53395.85576630 66805.48754978 2.88961005 201 172 118
53395.73915863 66805.50424004 2.88674998 192 169 125
53395.73387146 66805.48879004 2.88404989 187 162 114
53395.74137878 66805.49832010 2.88520002 209 186 142
53395.74842834 66805.51322985 2.88866997 177 163 129
53395.74500275 66805.49513006 2.88346004 220 200 161
53395.74993896 66805.54389000 2.89621997 149 125 85
53395.73890686 66805.53311014 2.89460993 189 162 107
53395.76194763 66805.54659986 2.89738011 159 133 91
53395.75508118 66805.54480982 2.89704990 139 121 86
53395.71156311 66805.52174997 2.89259005 203 188 156
53395.69352722 66805.51322985 2.88965011 205 181 129
53395.66664124 66805.54519987 2.88335991 213 189 144
53395.65013123 66805.54341984 2.89274001 208 180 127
53395.71595764 66805.56064987 2.89821005 199 175 132
53395.68322754 66805.52789021 2.89153004 225 207 170
53395.65342712 66805.58463001 2.90285993 181 153 108
53395.64179230 66805.61230993 2.89617991 186 160 110
53395.60532379 66805.61173010 2.90330005 166 134 82
53395.64347839 66805.59840012 2.90257001 208 180 124
53395.62803650 66805.61134005 2.90013003 169 142 99
53395.56455994 66805.66023016 2.90972996 165 142 96
53395.52966309 66805.65398979 2.91425991 191 159 105
53395.53269196 66805.65718985 2.91244006 165 132 85
53395.53682709 66805.67247009 2.91273999 174 150 113
53395.52349091 66805.65349007 2.91207004 225 203 162
53395.54615784 66805.65969992 2.91065001 188 163 114
53395.45437622 66805.69621992 2.91915011 156 128 85
53395.45520020 66805.69853020 2.91863990 160 138 95
53395.50119781 66805.66021013 2.91977000 141 118 84
53395.46312714 66805.67761993 2.91775990 222 196 149
53395.45265198 66805.67608976 2.91697001 160 137 92
53395.41600037 66805.70018005 2.93105006 142 117 70
53395.42658234 66805.70462990 2.93230009 177 152 103
53395.40547943 66805.71073008 2.92549992 147 127 98
53395.41546631 66805.72570992 2.92934990 177 152 108
53395.44911957 66805.74569988 2.92350006 223 197 146
53395.43865204 66805.71200991 2.92047000 190 160 109
53395.35173798 66805.81192017 2.94780993 224 194 142
53395.29650879 66805.79349995 2.95298004 190 169 127
53395.35839081 66805.78186989 2.93966007 157 132 97
53395.30410004 66805.82628012 2.95495009 222 196 142
53395.33383179 66805.80102015 2.94092989 172 144 93
53395.30977631 66805.80038977 2.94901991 209 181 123
53395.29276276 66805.82319021 2.96378994 196 164 106
53395.28090668 66805.82335997 2.95467997 181 154 109
53395.29850006 66805.83066988 2.95298004 190 163 110
53395.28898621 66805.83956003 2.95279002 209 184 139
53395.24948120 66805.82579994 2.94528008 170 146 98
53395.17231750 66805.86743021 2.96644998 134 126 100
53395.16616058 66805.88292980 2.95730996 186 161 108
53395.20387268 66805.88959980 2.94956994 162 140 91
53395.19699860 66805.83788013 2.95112991 176 152 99
53395.18746948 66805.89877987 2.94984007 190 159 101
53395.20368195 66805.89228010 2.94868994 171 144 87
53395.18128204 66805.89964008 2.94737005 181 153 96
53395.92949677 66805.31432009 2.83234000 197 172 126
53395.90535736 66805.32610989 2.85096002 212 192 160
53395.89394379 66805.30217981 2.85240006 153 130 95
53395.90191650 66805.33235979 2.85991001 177 153 105
53395.91890717 66805.30462980 2.83330989 149 128 91
53395.90650177 66805.32725000 2.84856009 199 181 147
53395.89472961 66805.30635023 2.85273004 177 155 113
53395.90402222 66805.31954002 2.85055995 154 136 109
53395.84249115 66805.36879015 2.89040995 127 107 81
53395.84623718 66805.40750980 2.87754989 194 169 126
53395.84806061 66805.38510990 2.88957000 153 133 95
53395.84300232 66805.37696981 2.88843012 153 131 90
53395.86131287 66805.38747978 2.88449001 214 185 132
53395.86614990 66805.39073992 2.88461995 185 156 105
53395.84005737 66805.37236977 2.89008999 166 141 94
53395.83596802 66805.37137985 2.88887000 165 140 100
53395.84281158 66805.37300014 2.89049006 202 177 133
53395.86286926 66805.37955999 2.88783002 202 176 131
53395.80290985 66805.38008022 2.88663006 163 137 96
53395.77976990 66805.43076992 2.88678002 174 149 104
53395.78901672 66805.37834978 2.88706994 152 132 99
53395.82070923 66805.39533997 2.88932991 200 174 127
53395.77996063 66805.38445997 2.88731003 157 135 96
53395.77896881 66805.41934013 2.88940001 162 139 101
53395.79151154 66805.37757015 2.88740993 141 122 87
53395.83191681 66805.38820982 2.88893008 151 128 92
53395.80008698 66805.40157986 2.88524008 140 120 89
53395.80399323 66805.39260006 2.88850999 186 161 118
53395.70886230 66805.44926023 2.89315009 128 112 83
53395.70256805 66805.43745995 2.89197993 132 117 87
53395.70239258 66805.47395992 2.89317012 146 121 79
53395.65078735 66805.48013020 2.90225005 156 129 84
53395.65248108 66805.47961998 2.90329003 152 129 97
53395.69848633 66805.49783993 2.89244008 146 123 88
53395.66953278 66805.50013018 2.90044999 168 143 105
53395.67799377 66805.48818016 2.89882994 145 119 81
53395.69917297 66805.49978018 2.89175010 181 153 108
53395.69435120 66805.50302982 2.89386010 151 118 80
53395.68125153 66805.49438000 2.89438009 171 148 105
53395.58473206 66805.55212021 2.91038990 143 116 74
53395.56002045 66805.55289984 2.89352012 171 153 119
53395.59790039 66805.55475998 2.89289999 234 211 166
53395.57074738 66805.52181005 2.91018009 181 153 107
53395.58460236 66805.51991987 2.91015005 177 143 90
53395.60225677 66805.54039001 2.91070008 224 196 142
53395.51307678 66805.55399990 2.90322995 187 170 135
53395.53585815 66805.54393005 2.90453005 222 197 152
53395.50913239 66805.55068016 2.90299010 247 241 229
53395.49877167 66805.56203985 2.90477991 191 166 118
53395.49172211 66805.56551981 2.90375996 221 196 152
53395.51965332 66805.59575987 2.89671993 139 104 67
53395.41133881 66805.65043020 2.94232011 107 86 51
53395.44647980 66805.66755009 2.91768003 141 124 98
53395.47473145 66805.64249992 2.91770005 183 156 105
53395.48030090 66805.63805008 2.91978002 155 131 89
53395.46720123 66805.61589003 2.91942000 164 140 98
53395.47054291 66805.62129021 2.91870999 137 115 79
53395.36914825 66805.66159010 2.93080997 196 168 115
53395.40545654 66805.66049004 2.94139004 135 108 64
53395.35727692 66805.70928001 2.93266010 170 142 95
53395.36086273 66805.65760994 2.92911005 176 149 97
53395.37332153 66805.66015005 2.93204999 99 82 55
53395.35855865 66805.65588999 2.93009996 185 158 103
53395.32518005 66805.73895979 2.94674993 163 136 87
53395.27452087 66805.74032021 2.95350003 207 178 123
53395.32026672 66805.70478010 2.93623996 162 137 98
53395.29651642 66805.73296022 2.94040990 208 184 138
53395.27007294 66805.72683001 2.95032001 185 162 114
53395.33463287 66805.68053007 2.92365003 198 176 129
53395.25044250 66805.75326014 2.94955993 214 182 124
53395.23120117 66805.76454020 2.95256996 211 186 139
53395.24404144 66805.76142979 2.95240998 143 114 67
53395.21994019 66805.81095982 2.95212007 187 159 110
53395.21604156 66805.81855011 2.95099998 201 177 127
53395.86859894 66805.28762007 2.86401010 194 172 130
53395.87296295 66805.28604984 2.85048008 156 132 92
53395.86815643 66805.30118990 2.85012007 114 101 72
53395.86364746 66805.29933977 2.84954000 196 173 123
53395.80343628 66805.33092022 2.89308000 142 121 85
53395.79763031 66805.32842016 2.89484000 186 158 117
53395.81600952 66805.33864021 2.89061999 195 175 138
53395.85813141 66805.30427980 2.85376000 176 150 101
53395.83786774 66805.31868982 2.86006999 166 148 109
53395.81221008 66805.33665991 2.89095998 162 133 92
53395.79379272 66805.35385990 2.88932991 141 118 82
53395.77127075 66805.36272001 2.88882995 129 117 90
53395.76676178 66805.36684990 2.88960004 159 137 99
53395.76502991 66805.36445999 2.88946009 134 109 69
53395.75653076 66805.38182020 2.89088011 176 151 106
53395.77913666 66805.36938000 2.88783002 179 159 119
53395.68106842 66805.41457987 2.89657998 111 91 63
53395.68132782 66805.41721010 2.89608002 119 101 70
53395.72926331 66805.40776014 2.88707995 173 160 135
53395.73725891 66805.40075016 2.88932991 117 103 77
53395.70855713 66805.41775990 2.89020991 155 131 85
53395.66896057 66805.44993019 2.89783001 159 119 86
53395.65573883 66805.46231985 2.90299010 153 121 88
53395.64868164 66805.45356989 2.90171003 149 125 94
53395.65479279 66805.45421982 2.90074992 135 111 80
53395.65014648 66805.42879009 2.89808989 156 116 86
53395.53746033 66805.53357983 2.90991998 130 112 82
53395.56655121 66805.51648998 2.90848994 169 148 109
53395.50150299 66805.53610992 2.91073990 152 127 84
53395.49761963 66805.53836012 2.91064000 215 187 139
53395.49353027 66805.53849983 2.91224003 192 162 117
53395.30000305 66805.67476988 2.93880010 84 72 53
53395.29747772 66805.68147993 2.93326998 178 149 95
53395.17302704 66805.76939011 2.94719005 158 135 95
53396.12570190 66805.42633009 2.90166998 57 48 31
53395.96379852 66805.68746996 2.89329004 201 166 102
53395.95053101 66805.67770004 2.89418006 187 157 104
53395.84117126 66805.67105007 2.89915991 205 182 135
53395.84690857 66805.73332024 2.90511990 204 178 131
53396.15174866 66805.45970011 2.90374994 137 123 90
53395.90100098 66805.56810999 2.89051008 190 155 97
53396.13057709 66805.42583990 2.90161991 159 132 86
53395.74152374 66805.42336988 2.88875008 194 174 130
53395.56707764 66805.52066994 2.90871000 209 186 141
53395.64909363 66805.45009995 2.90114999 180 151 109
53395.92814636 66805.74629021 2.89692998 83 66 40
53395.91271210 66805.74395990 2.89650989 121 105 67
53395.98104858 66805.73841000 2.89804006 99 76 42
53395.89466858 66805.73475981 2.89947009 141 120 77
53395.89206696 66805.73803997 2.89843011 133 118 85
53395.94889832 66805.72356987 2.89780998 109 88 50
53395.98252106 66805.73529005 2.89640999 119 96 62
53395.88990784 66805.74254990 2.89814997 93 79 48
53395.90908813 66805.77424002 2.90015006 39 28 14
53395.86962891 66805.75086021 2.90282011 122 100 62
53395.88719940 66805.75031996 2.90014005 137 117 72
53395.62487793 66805.88428020 2.91247010 119 105 74
53395.26451111 66806.11689997 2.93994999 142 70 52
53395.92603302 66805.70212984 2.89780998 79 61 29
53395.88710022 66805.71640015 2.89843011 95 73 41
53395.87606049 66805.70062017 2.89980006 116 98 67
53395.86450958 66805.67170000 2.89338994 117 99 67
53395.89102936 66805.65264988 2.89093995 145 122 74
53395.88172150 66805.68955994 2.89692998 96 89 74
53395.84239960 66805.68741989 2.89913011 101 85 45
53395.55812836 66805.83978987 2.91769004 115 93 60
53395.60652924 66805.85309982 2.92361999 33 30 23
53395.49738312 66805.94266987 2.92985010 69 57 32
53395.36956024 66805.97463989 2.95077991 82 69 50
53395.22640228 66806.09546995 2.93498993 130 103 74
53395.20774841 66806.10459995 2.93917990 190 160 112
53395.81392670 66805.61764002 2.89705992 91 77 48
53395.81504822 66805.62220001 2.90061998 43 37 26
53395.80103302 66805.60747004 2.89782000 116 94 56
53395.85662079 66805.62509012 2.87670994 132 113 78
53395.80541992 66805.61704016 2.89668989 82 68 50
53395.80773926 66805.63322020 2.89951992 128 110 75
53395.79839325 66805.62633991 2.89911008 95 77 49
53395.72535706 66805.68571997 2.89738989 27 23 14
53395.68923950 66805.67545986 2.90779996 19 17 13
53395.57044220 66805.73684978 2.90774012 30 27 18
53395.50411987 66805.80641985 2.92692995 101 79 43
53395.54122162 66805.75622988 2.90012002 119 96 61
53395.36842346 66805.93765020 2.95360994 14 12 8
53395.35677338 66805.89082003 2.95038009 101 79 47
53395.36248779 66805.89500999 2.94797993 70 57 33
53395.22139740 66806.01176023 2.94948006 59 49 31
53395.20333099 66806.01050997 2.95058990 82 56 52
53395.23126221 66806.01998997 2.94566989 91 76 53
53395.18315125 66806.02149010 2.95222998 105 66 52
53395.18891907 66806.02193022 2.95289993 130 88 67
53395.81121826 66805.59077978 2.89924002 33 27 18
53395.77651978 66805.53849983 2.89920998 126 108 79
53395.74936676 66805.55658007 2.89753008 126 110 77
53395.77113342 66805.57142019 2.89785004 53 49 36
53395.79488373 66805.56970978 2.89809990 99 89 64
53395.76473999 66805.59098005 2.90244007 100 80 50
53395.74610138 66805.58392000 2.89800000 147 108 79
53395.75424957 66805.59074020 2.89978004 73 60 49
53395.75756836 66805.61193991 2.90195990 131 106 66
53395.51600647 66805.69851017 2.91122007 147 123 84
53395.55490875 66805.72950983 2.90908003 112 85 44
53395.55129242 66805.71584988 2.91389990 54 45 23
53395.48732758 66805.75576019 2.91694999 107 87 52
53395.49993896 66805.74735022 2.91781998 83 63 30
53395.45745850 66805.74833012 2.91944003 92 70 33
53395.44261169 66805.73834991 2.92224002 48 43 34
53395.16536713 66805.94864988 2.95029998 84 66 45
53395.16905975 66805.94782019 2.94813991 146 116 64
53395.17376709 66805.90472984 2.94840002 147 119 73
53395.16332245 66805.92755985 2.94756007 128 110 81
53395.20397949 66805.94080019 2.95326996 81 63 34
53395.15319061 66805.91463995 2.95057988 120 102 67
53395.16494751 66805.93944979 2.94832993 114 95 68
53395.13469696 66805.97118998 2.95040011 66 51 30
53395.14772034 66805.97930002 2.94663000 109 80 57
53395.14592743 66805.93805981 2.95111990 138 101 78
53395.70839691 66805.50181007 2.89064002 112 87 47
53395.73883057 66805.53513002 2.89355993 128 112 72
53395.72074890 66805.49218988 2.88745999 116 100 76
53395.76009369 66805.53970003 2.89709997 120 96 54
53395.75698853 66805.54449987 2.89793992 100 86 57
53395.73040009 66805.53488016 2.89696002 123 96 58
53395.49581909 66805.63903999 2.91867995 124 104 68
53395.50444031 66805.64165020 2.91755009 109 99 78
53395.50145721 66805.62336016 2.90704989 86 73 48
53395.48193359 66805.63703012 2.92077994 105 88 61
53395.49015808 66805.66733980 2.91787004 141 115 72
53395.43981934 66805.71030998 2.91854000 101 85 57
53395.45987701 66805.67559004 2.91657996 109 91 60
53395.46945953 66805.66411018 2.91943002 140 123 93
53395.18334198 66805.87060022 2.96989012 125 103 62
53395.14208984 66805.88811016 2.95306993 138 120 84
53395.13435364 66805.91308022 2.95324993 41 29 20
53395.08653259 66805.93470001 2.95515990 146 124 83
53395.09107208 66805.94371986 2.95129991 152 129 87
53395.14228821 66805.91114998 2.95197010 118 101 73
53395.10096741 66805.87328005 2.95221996 162 144 108
53395.07788086 66805.91235018 2.95807004 150 124 77
53395.13336182 66805.91804981 2.95375991 129 97 81
53395.10469818 66805.91930008 2.95531011 99 85 66
53395.49075317 66805.60096979 2.91263008 33 26 13
53395.46443176 66805.58233976 2.90879989 166 144 99
53395.46543884 66805.59105015 2.91352010 46 42 28
53395.47145844 66805.61259985 2.92032003 62 58 38
53395.40866852 66805.63484001 2.94257998 22 20 14
53395.41525269 66805.66204977 2.93770003 126 102 64
53395.41439819 66805.66656017 2.93826008 172 140 90
53395.36811829 66805.64776993 2.93362999 158 133 91
53395.34966278 66805.67449999 2.92361999 144 126 88
53395.36190796 66805.66240978 2.92833996 151 129 91
53395.15113068 66805.79695988 2.95963001 117 99 67
53395.16792297 66805.82838011 2.96875000 29 29 25
53395.05917358 66805.82952976 2.96536994 123 84 54
53395.05718231 66805.86682987 2.95916009 39 31 17
53395.04595947 66805.86871004 2.96086001 132 115 83
53395.04817200 66805.88490009 2.95984006 64 55 39
53395.45028687 66805.57458019 2.91977000 19 17 12
53395.91278076 66805.74208021 2.89740992 182 160 120
53395.89888763 66805.73753977 2.89865994 193 167 112
53395.89636230 66805.73313999 2.89824009 169 146 100
53395.89417267 66805.73295021 2.89985991 184 157 104
53395.88600922 66805.73599005 2.89792991 208 182 127
53395.64177704 66805.88675022 2.91373992 199 176 128
53395.25740814 66806.09869003 2.94422007 188 122 90
53395.24706268 66806.12787008 2.93987012 190 134 102
53395.21614075 66806.11552000 2.93677998 153 135 99
53395.23589325 66806.12479019 2.94117999 195 158 108
53395.21318817 66806.10771990 2.93373990 226 211 184
53395.84860229 66805.68463993 2.89960003 179 152 102
53395.86946869 66805.67620993 2.89703012 150 134 99
53395.85285187 66805.66428995 2.89525008 188 163 117
53395.87389374 66805.65404987 2.89269996 150 135 101
53395.87831116 66805.71597004 2.89724994 180 161 125
53395.92285156 66805.69485998 2.89913011 208 183 130
53395.91030884 66805.70423985 2.89726996 212 186 133
53395.92671204 66805.69891024 2.89404011 197 170 116
53395.84710693 66805.71928978 2.90265989 217 190 134
53395.86830139 66805.73486996 2.90354991 176 150 102
53395.85465240 66805.73778009 2.90483999 160 137 88
53395.85304260 66805.69559002 2.90135002 215 188 134
53395.81401062 66805.70156002 2.89640999 149 134 99
53395.55594635 66805.84723997 2.91981006 194 170 123
53395.60220337 66805.84556007 2.91880989 166 140 94
53395.37271881 66805.97275019 2.95063996 159 144 119
53395.24845123 66806.03330994 2.94997001 200 183 151
53395.30467987 66806.03882980 2.94585991 174 151 106
53395.80686188 66805.61905003 2.89683008 164 142 95
53395.84293365 66805.63330984 2.88160992 204 182 132
53395.81632233 66805.66273022 2.89473009 131 114 88
53395.79026794 66805.63549995 2.89772010 176 151 113
53395.81713104 66805.66887999 2.89584994 181 154 113
53395.80140686 66805.65005016 2.89455009 183 155 104
53395.71739197 66805.67639017 2.89677000 174 157 114
53395.70369720 66805.66949987 2.90711999 163 147 111
53395.59961700 66805.75324011 2.90552998 201 173 121
53395.51049042 66805.81832981 2.92546010 168 143 98
53395.45896912 66805.84863997 2.93899989 205 182 136
53395.44085693 66805.86052990 2.95121002 192 164 115
53395.47042847 66805.88455009 2.95467997 186 156 107
53395.35134888 66805.90487003 2.95185995 108 98 76
53395.14839172 66806.00001001 2.95239997 163 143 106
53395.82147217 66805.58271980 2.89844990 138 118 77
53395.55706024 66805.71858978 2.91122007 231 204 141
53395.54048920 66805.68046999 2.90888000 233 214 169
53395.45706940 66805.74052000 2.91709995 184 162 121
53395.50321198 66805.72256994 2.90989995 182 166 128
53395.17150116 66805.94371986 2.94899011 146 120 79
53395.16754150 66805.94686985 2.94888997 195 161 107
53395.18414307 66805.95600986 2.95200992 120 95 60
53395.15010834 66805.99194002 2.95334005 192 162 109
53395.13271332 66805.97985983 2.94909000 194 166 109
53395.15312195 66805.96410990 2.94968009 215 177 115
53395.15554810 66805.96143007 2.94847989 213 176 118
53395.71566772 66805.50874996 2.88858008 166 143 107
53395.72373962 66805.51691008 2.89232993 121 105 69
53395.72431183 66805.51162004 2.88927007 176 153 109
53395.70292664 66805.49700022 2.89243007 176 149 103
53395.50884247 66805.64036989 2.91633010 179 158 120
53395.50583649 66805.66345978 2.91990995 215 183 125
53395.50045776 66805.62048006 2.90648007 204 177 125
53395.45157623 66805.66415977 2.91647005 176 161 132
53395.45467377 66805.66680002 2.91646004 182 152 98
53395.18499756 66805.86490011 2.97031999 126 106 74
53395.12933350 66805.86795998 2.96041989 164 143 106
53395.08457184 66805.87670994 2.95638990 130 105 65
53395.48770905 66805.59695005 2.91023993 211 184 135
53395.45259857 66805.58017015 2.91872001 214 186 129
53395.45336151 66805.57806015 2.92112994 189 168 119
53395.39296722 66805.61687994 2.93244004 216 187 139
53395.43186188 66805.60832977 2.93364000 216 188 134
53395.46798706 66805.62752008 2.91969991 202 170 111
53395.40962982 66805.66555977 2.94132996 222 192 136
53395.44100952 66805.60121012 2.93607998 216 193 146
53395.14814758 66805.79813004 2.96123004 97 81 54
53395.11750793 66805.83968019 2.96698999 140 129 110
53395.15508270 66805.79591990 2.95885992 210 184 136
53395.15408325 66805.79606009 2.95889997 208 180 131
53395.12315369 66805.79954004 2.95693994 169 147 105
53395.12970734 66805.85261011 2.96432996 177 158 120
53395.12380219 66805.85332012 2.96361995 154 135 100
53395.05001068 66805.88437986 2.96050000 137 117 85
53395.06012726 66805.88388014 2.95889997 115 101 72
53395.05998230 66805.84406996 2.96464992 222 188 134
53395.04344940 66805.87444019 2.96122003 164 136 88
53395.35942841 66805.77660990 2.94281006 53 45 34
53395.24131775 66805.78761005 2.95268011 172 152 109
53395.64949799 66805.87697983 2.91419005 135 111 67
53396.12525177 66805.53041983 2.88717008 91 75 46
53395.85762787 66805.72348022 2.90352011 108 95 64
53395.58618164 66805.83658981 2.91842008 52 40 22
53395.59700775 66805.83133984 2.91980004 43 33 18
53395.38324738 66806.03120995 2.95060992 44 38 22
53395.20935822 66806.05041981 2.94912004 128 88 73
53396.14424133 66805.49893999 2.91111994 61 41 13
53396.08851624 66805.47486019 2.90286994 117 93 51
53395.93308258 66805.53851986 2.89048004 18 12 4
53395.79633331 66805.63172007 2.89842010 105 81 46
53395.30973816 66805.95150995 2.96296000 37 32 20
53395.17114258 66806.02368021 2.95360994 59 46 30
53395.15377808 66806.04008007 2.94896007 115 95 54
53396.08013153 66805.42361021 2.90094995 48 43 30
53396.07617950 66805.41175985 2.89947009 35 33 21
53396.07002258 66805.40700006 2.89881992 57 48 29
53396.12129974 66805.42806005 2.90376997 86 76 55
53396.07298279 66805.41321993 2.90250993 58 54 37
53396.08724976 66805.41534996 2.90205002 58 50 36
53396.08663177 66805.42689991 2.90229011 78 70 45
53395.74031067 66805.56505013 2.89713001 116 88 62
53395.35780334 66805.80703020 2.94909000 9 7 5
53395.31581879 66805.84853983 2.95356989 49 42 25
53395.35572052 66805.82566977 2.94792008 65 58 39
53395.19448853 66805.89130020 2.95180011 118 96 58
53395.15238190 66805.96027994 2.94988990 59 43 26
