53395.78945160 66805.65090895 2.89207864 146 131 98
53396.01751709 66806.00204086 2.90360999 155 144 110
53396.13082123 66805.93840790 2.90550065 142 131 99
53396.24291992 66805.88665676 2.90311003 108 100 74
53395.32319641 66806.20712328 2.94283056 166 153 119
53395.51492310 66805.69261789 2.91074586 157 146 109
53395.63136292 66806.02905893 2.90946054 218 232 231
53395.73944855 66805.96927643 2.90646315 179 192 190
53396.08367157 66805.93118715 2.90272164 120 109 79
53395.85644531 66805.90445709 2.90121818 141 152 150
53395.96456146 66805.84470224 2.89921999 106 93 67
53396.08036804 66805.78976727 2.88974833 144 134 100
53396.20067596 66805.86536837 2.89750481 111 102 75
53395.43402100 66806.14518213 2.93376637 149 138 102
53395.54579926 66806.08421373 2.92363381 152 141 105
53395.93511200 66805.38563824 2.87011051 110 102 74
53395.85102081 66805.42944336 2.87151647 122 113 82
53395.80313873 66806.08140421 2.90262890 150 169 172
53395.91644287 66806.01877022 2.90449214 236 246 244
53395.38190460 66806.31224489 2.93940401 159 149 113
53395.49771118 66806.25830936 2.92990446 159 148 111
53395.60949707 66806.19634199 2.91979957 149 138 103
53395.44560242 66806.42537212 2.93554187 160 140 105
53395.55738068 66806.36340475 2.92543674 170 144 109
53395.66947937 66806.31065512 2.92307258 150 110 86
53395.62574768 66805.63067627 2.90168166 153 142 107
53395.80238342 66806.01545525 2.90548444 153 173 176
53395.81046295 66806.22985697 2.91623735 129 99 80
53395.62107849 66806.47553205 2.92160201 151 140 105
53395.73564911 66806.42109013 2.93019295 149 138 101
53395.63860321 66805.91905832 2.91018510 142 137 113
53395.30525208 66806.18007374 2.94334817 153 139 106
53395.86525726 66805.45867777 2.87810659 135 125 93
53395.75560760 66805.85423899 2.90494037 129 126 105
53395.92224121 66806.16788912 2.90613103 123 90 73
53396.03553772 66806.10525513 2.90799475 135 103 80
53396.14613342 66806.04380751 2.91695070 93 72 53
53396.26314545 66805.97898865 2.91170549 148 141 113
53395.92038727 66805.94963837 2.90022469 155 157 141
53395.41950989 66806.11641407 2.94419718 154 143 108
53395.53521729 66805.86111355 2.92424321 139 128 98
53396.06346130 66806.02014494 2.90213490 134 123 91
53396.17401886 66805.95967007 2.91006446 130 120 92
53395.90127563 66805.58896875 2.88297224 167 156 118
53396.28855133 66805.89554358 2.89389277 122 113 85
53395.90054321 66806.24914932 2.91683626 145 128 102
53396.01264191 66806.19639921 2.91447210 122 108 81
53396.12191772 66806.12673330 2.91570187 122 112 84
53396.24018860 66806.07010603 2.91718483 132 122 90
53395.87293243 66806.34247780 2.93046522 110 100 75
53395.53403473 66806.05328751 2.92799783 142 131 96
53395.98471069 66806.28150988 2.92033195 148 138 104
53396.09800720 66806.21787596 2.92222261 130 121 91
53396.21501160 66806.15205717 2.91700554 162 151 114
53396.32308960 66806.09327412 2.91398001 141 130 95
53396.35100555 66806.00816393 2.90812135 142 132 99
53396.02746582 66805.88985395 2.89726973 109 99 71
53396.13928223 66805.82891417 2.88813567 148 137 103
53395.86737823 66805.79227161 2.89483523 135 120 88
53396.01452637 66805.52630711 2.88383651 144 134 101
53395.97820282 66805.73032951 2.88577080 143 131 98
53396.09150696 66805.66769552 2.88763452 137 126 93
53395.62683868 66805.88813162 2.91454983 156 147 114
53395.85239410 66806.24092865 2.91412783 126 96 79
53395.69668579 66805.81509256 2.90655327 140 129 96
53395.80747223 66805.75412226 2.89646316 143 128 95
53395.91928864 66805.69218302 2.88735652 145 135 101
53396.03629303 66805.62636375 2.88213897 143 133 100
53395.39392853 66806.27622509 2.93787956 149 136 101
53395.86825562 66805.93541193 2.89785266 108 120 120
53395.98150635 66805.87174988 2.89874458 106 93 69
53396.09731293 66805.81681490 2.88927317 140 130 95
53395.73860931 66805.82716370 2.90441656 129 119 88
53395.84944153 66805.76522160 2.89535308 153 139 106
53395.82012939 66806.10847950 2.90315294 143 162 164
53395.93437958 66806.04582024 2.90397453 227 236 233
53395.96121979 66805.70325470 2.88524699 129 118 85
53396.07451630 66805.64062023 2.88711047 135 125 92
53395.96939087 66806.17610884 2.90888262 137 113 89
53395.73726654 66806.16144800 2.91026068 115 125 124
53395.84907532 66806.10050726 2.90112662 232 247 248
53395.44129181 66805.69167805 2.92094755 150 139 103
53395.50525665 66805.81299496 2.92385697 140 130 97
53395.56496429 66805.91911793 2.92036033 136 126 96
53396.03471375 66805.96214247 2.90597558 128 117 86
53396.14653015 66805.90020227 2.89686847 135 125 93
53395.86930084 66806.19283962 2.90972161 100 73 64
53395.98139191 66806.14008951 2.90735865 137 105 82
53396.09470367 66806.07645559 2.90924931 110 85 63
53396.20027924 66806.00897360 2.91758609 120 113 90
53396.31977844 66805.95185328 2.90100670 137 127 96
53395.93177032 66806.30545998 2.92395020 141 131 100
53396.03884888 66806.24567604 2.92099524 143 132 101
53396.15315247 66806.18304348 2.92281580 157 147 111
53396.26894379 66806.12810802 2.91334462 160 150 114
53396.37977600 66806.06616640 2.90428066 154 144 110
53395.51088715 66806.21137857 2.93163562 155 144 107
53395.96238708 66806.03687334 2.90301704 177 178 162
53395.73756409 66805.56973600 2.89254761 152 139 104
53396.07998657 66806.11466169 2.91783810 123 105 80
53395.85205078 66805.50558186 2.87537694 148 137 103
53395.70929718 66806.17042160 2.91221642 170 179 169
53396.19325256 66806.05200005 2.91870284 122 112 85
53396.30506897 66805.99006033 2.90959597 129 119 89
53395.96300507 66806.36176968 2.93106413 84 76 54
53396.07008362 66806.30298567 2.92808199 139 129 97
53396.18190765 66806.24104548 2.91897511 152 141 105
53395.96634674 66805.44194937 2.87722445 124 115 84
53395.58396149 66806.61357832 2.92539406 159 147 107
53395.91484833 66806.35454845 2.92832851 118 109 85
53396.03185272 66806.28872919 2.92311096 144 133 101
53396.13993835 66806.22894716 2.92011356 146 136 102
53396.25693512 66806.16412783 2.91486835 145 134 98
53396.36875153 66806.10218763 2.90576220 139 129 94
53395.75126648 66806.18251991 2.91107893 176 187 182
53395.86606598 66806.12758303 2.90165067 232 245 244
53395.11164093 66805.95050764 2.94700217 145 130 97
53395.22493744 66805.88787413 2.94886637 124 113 83
53395.33301544 66805.82809162 2.94586849 135 124 93
53395.36492157 66806.28516960 2.93887997 155 144 108
53395.55979156 66805.63555527 2.90438390 144 133 99
53395.48072052 66806.23023415 2.92940855 159 149 112
53395.87997437 66805.42047119 2.86951780 118 109 81
53395.67160797 66805.57361507 2.89527702 141 128 95
53395.78244781 66805.51167345 2.88621354 132 121 87
53395.69207764 66806.55382395 2.92339492 175 164 125
53395.71250916 66805.50954771 2.88928008 141 129 95
53395.54985809 66805.74674273 2.91075182 152 141 106
53395.66067505 66805.68480110 2.90168858 148 135 100
53395.77249908 66805.62386084 2.89255357 148 133 99
53395.88327789 66805.56189156 2.88249135 160 149 110
53395.99758148 66805.49925947 2.88431144 149 139 104
53395.27970886 66806.00603867 2.94725108 152 141 107
53395.58109283 66805.80305338 2.91786575 134 123 91
53395.60984802 66805.86105585 2.91402578 156 145 112
53395.39671326 66805.94021940 2.94203424 155 145 110
53395.72067261 66805.80011368 2.90493464 141 130 96
53395.83244324 66805.73814631 2.89482856 135 121 88
53395.94327545 66805.67620468 2.88576460 131 120 88
53396.05757141 66805.61357212 2.88758469 130 120 88
53395.61580658 66805.74286366 2.90802240 127 116 84
53395.67353821 66805.97318411 2.91019201 234 248 249
53395.78435516 66805.91224194 2.90110040 103 114 115
53395.89861298 66805.84858227 2.90194893 166 150 119
53396.00944519 66805.78763962 2.89285779 147 136 102
53396.12126160 66805.72569990 2.88375068 129 120 88
53395.25099182 66805.94806337 2.95209050 115 103 74
53395.36799622 66805.88224459 2.94687295 147 137 105
53395.31369019 66806.06018925 2.94829941 148 137 104
53395.42546082 66805.99822140 2.93819380 147 137 103
53395.53999329 66805.93409491 2.92202163 154 144 111
53395.95835876 66805.48500109 2.87938333 139 128 94
53395.50753021 66805.87827730 2.93297076 103 92 67
53395.23300934 66805.91998672 2.95163703 129 118 89
53395.35000610 66805.85516691 2.94639254 142 131 99
53395.29669952 66806.03311396 2.94777513 149 138 105
53395.41371155 66805.96729469 2.94255757 143 133 99
53395.52300262 66805.90701962 2.92149782 115 104 75
53395.82334137 66805.44760609 2.88021612 131 120 87
53395.36039734 66806.14524174 2.94394112 154 142 107
53395.47116852 66806.08327150 2.93387842 146 135 99
53395.42407990 66806.25736952 2.94010735 149 135 101
53395.53485870 66806.19539976 2.93004417 151 140 103
53395.48777008 66806.36949682 2.93627310 151 135 100
53395.59855652 66806.30752707 2.92620969 163 142 106
53395.71037292 66806.24658728 2.91707587 153 140 112
53395.54894257 66806.48328924 2.92048550 130 118 84
53395.66224670 66806.42065477 2.92234850 153 141 105
53395.77554321 66806.35702133 2.92423916 143 130 96
53395.60894012 66806.59760237 2.92375922 163 152 111
53395.72224426 66806.53496790 2.92562222 166 155 118
53395.83278656 66806.47349310 2.93357897 130 119 87
53395.17779541 66805.87965393 2.94611430 135 124 92
53395.29109192 66805.81602001 2.94800472 133 122 90
53395.40561676 66805.75289297 2.93180585 125 115 84
53395.73722839 66806.08631086 2.90632987 133 142 139
53395.46226501 66805.72575808 2.92110753 152 142 106
53395.57777405 66805.66263199 2.90486526 136 126 91
53395.68860626 66805.60069084 2.89580083 147 133 100
53395.80037689 66805.53872347 2.88569522 153 142 107
53395.73435974 66806.23060942 2.91548395 178 175 158
53395.91120148 66805.47778082 2.87660432 129 119 87
53395.84430695 66806.02652645 2.90337491 232 248 250
53395.96131134 66805.96070814 2.89815807 138 130 99
53396.07560730 66805.89807558 2.89997792 138 128 97
53396.18368530 66805.83829308 2.89698052 128 118 88
53395.21629333 66806.07473278 2.94207382 160 133 104
53395.90799713 66806.13865423 2.89954114 182 174 158
53395.57292938 66806.46731138 2.91889334 135 122 89
53395.66308594 66806.56276798 2.92439532 172 161 121
53395.77737427 66806.50013590 2.92621517 140 129 95
53395.37733459 66806.17228937 2.94346666 168 156 120
53395.48915863 66806.11034918 2.93435955 172 161 124
53395.68621826 66806.40467644 2.92075706 159 147 111
53395.80051422 66806.34104490 2.92260480 142 130 97
53395.34339142 66806.11816549 2.94341731 144 132 98
53395.45935822 66805.79491901 2.92633080 124 114 83
53396.04875183 66806.05835152 2.91072464 146 127 99
53396.16204834 66805.99571753 2.91258764 122 108 82
53396.27383423 66805.93374968 2.90248203 141 134 106
53395.88362122 66806.29723883 2.92124176 147 135 106
53396.00062561 66806.23241949 2.91599655 160 149 116
53396.11492157 66806.16878700 2.91784430 130 121 91
53396.22299957 66806.11000395 2.91481972 149 138 104
53396.33383179 66806.04806280 2.90575600 146 135 101
53395.43585205 66806.28829575 2.93574286 154 143 107
53395.55286407 66806.22247648 2.93052506 152 141 104
53395.66737366 66806.15934992 2.91432595 131 125 102
53395.49854279 66806.40042210 2.93195152 153 129 96
53395.61653900 66806.33560467 2.92666388 161 128 97
53395.72731781 66806.27363491 2.91660118 135 109 85
53395.69561005 66805.73992586 2.90166640 139 127 93
53395.56594086 66806.51036453 2.92100930 144 134 99
53395.67923737 66806.44773102 2.92287254 157 146 109
53395.78979492 66806.38625526 2.93082952 161 150 115
53395.46040344 66806.05234718 2.93819976 138 127 93
53395.63275146 66805.76991129 2.90754795 130 118 86
53395.74457550 66805.70797110 2.89844084 137 122 89
53395.62170410 66806.14943647 2.92257214 148 138 106
53395.86037445 66805.65303612 2.88896918 154 143 107
53395.97737885 66805.58821630 2.88372445 132 121 88
53395.53190613 66805.71969318 2.91126943 147 136 99
53395.64369202 66805.65772581 2.90116405 158 146 111
53395.75450897 66805.59678316 2.89207292 147 133 98
53395.86633301 66805.53484392 2.88296580 148 137 101
53395.97959137 66805.47218180 2.88383031 131 121 87
53395.59190369 66805.83400583 2.91454339 132 120 88
53395.70366669 66805.77303791 2.90441084 139 127 94
53395.56875610 66805.99209738 2.91818118 151 147 124
53395.82067871 66805.70721960 2.89919305 149 135 102
53395.93250275 66805.64527941 2.89008617 158 147 114
53396.04328156 66805.58430910 2.87999606 127 117 86
53395.58963776 66805.95101261 2.91341114 117 110 85
53395.65554810 66805.94610643 2.90971088 198 210 205
53395.76737213 66805.88516569 2.90057588 151 161 157
53395.88067627 66805.82153177 2.90246701 145 130 98
53395.99244690 66805.76056385 2.89233398 134 123 90
53396.10327911 66805.69862270 2.88326979 127 117 85
53395.71924591 66806.05923414 2.90584898 228 238 236
53395.73160553 66805.68792772 2.89855146 156 141 107
53395.69274139 66805.88422441 2.91082096 128 122 100
53395.82735443 66805.99947929 2.90385008 154 176 179
53395.94436646 66805.93366003 2.89863253 152 144 113
53396.05862427 66805.87099934 2.89945412 143 133 101
53396.16944122 66805.80905819 2.89039016 142 131 98
53395.33056641 66806.01107264 2.94292212 135 125 92
53395.90238953 66805.92256117 2.89974308 126 123 108
53395.77922821 66806.17354631 2.90912223 125 136 133
53395.89105225 66806.11160660 2.90001583 239 247 244
53396.01052094 66805.86280632 2.89774418 129 119 91
53395.70228577 66806.03118563 2.90635109 235 247 249
53395.80456543 66805.82328415 2.90168715 168 161 137
53395.92553711 66805.76446962 2.89610529 144 133 100
53396.03736877 66805.70252943 2.88699841 156 145 109
53395.64312744 66806.05998564 2.90509629 228 241 240
53395.75643158 66805.99635220 2.90698719 187 200 198
53395.98032379 66806.06392384 2.90249920 180 180 162
53395.84238434 66805.62595892 2.88848805 161 149 112
53395.95938873 66805.56113958 2.88324356 144 133 97
53396.12747192 66805.79795885 2.89150071 149 138 104
53395.11867523 66805.90748215 2.94588614 159 144 111
53395.23193359 66805.84482002 2.94675040 131 120 88
53395.34375763 66805.78288031 2.93764353 136 126 94
53395.18237305 66806.01960993 2.94205165 148 124 96
53395.29192352 66805.95913267 2.95002389 140 129 96
53395.40992737 66805.89331579 2.94476390 140 130 97
53395.24230957 66806.13489485 2.94429922 142 112 86
53395.35562134 66806.07126093 2.94618988 153 141 109
53395.46743774 66806.00932074 2.93708372 134 123 89
53395.41931152 66806.18338871 2.94235563 155 144 108
53395.53383636 66806.12026167 2.92615628 160 149 111
53395.48051453 66806.29720831 2.92756701 143 132 96
53395.59752655 66806.23238897 2.92232251 155 143 106
53395.54420471 66806.40933609 2.92373276 162 132 100
53395.65747070 66806.34667397 2.92459726 156 114 89
53395.76928711 66806.28473425 2.91549063 122 98 74
53395.60786438 66806.52243614 2.91887212 153 142 105
53395.71746063 66806.46098709 2.92787147 153 142 105
53395.83176422 66806.39835453 2.92969108 142 132 99
53395.68430328 66806.00410843 2.90587020 234 247 250
53395.80230713 66805.93929148 2.90058208 103 116 118
53395.40609741 66806.23029232 2.93962574 132 116 84
53395.90942383 66805.87953424 2.89862657 147 131 102
53396.02638245 66805.81468725 2.89238310 152 141 107
53396.13451385 66805.75493288 2.89038444 140 130 98
53395.51792145 66806.16835165 2.93051958 153 142 105
53395.60367584 66806.04722214 2.91816044 159 161 148
53395.47522736 66805.74680090 2.92096972 151 141 106
53395.58457947 66805.68655300 2.90090799 143 132 98
53395.70555115 66805.62773848 2.89532638 141 127 94
53395.74800110 66806.11723614 2.90200806 108 119 119
53395.81737518 66805.56579876 2.88621926 144 132 97
53395.86229706 66806.05360413 2.90385652 234 247 250
53395.92815399 66805.50482893 2.87612915 147 137 102
53395.63909149 66806.57874632 2.92598653 166 155 114
53395.74722290 66806.51899147 2.92398739 142 132 96
53395.65074921 66805.79698896 2.90802836 148 137 103
53395.76152039 66805.73501921 2.89796567 146 131 98
53395.87736511 66805.68111134 2.88946557 154 144 109
53395.98914337 66805.61914396 2.87936044 139 129 96
53395.64337158 66805.99303913 2.90793633 221 236 238
53395.76038361 66805.92722082 2.90271878 102 113 112
53395.86745453 66805.86843538 2.89973712 161 150 128
53395.98545837 66805.80261850 2.89447689 145 133 102
53396.09628296 66805.74167633 2.88538527 136 126 94
53395.59642792 66805.97493362 2.90945458 171 178 168
53395.70607758 66806.10516548 2.90414524 141 148 144
53395.71470642 66805.91830635 2.91093731 160 167 161
53395.81929779 66805.96636677 2.90110612 102 117 120
53395.82151031 66805.85033178 2.90121245 200 206 197
53395.86299133 66806.45466518 2.93680549 131 121 91
53395.93851471 66805.78451300 2.89599538 131 119 87
53396.05431366 66805.72957754 2.88652349 130 120 87
53395.92737579 66805.90658379 2.89810872 130 119 91
53395.38863373 66805.72581768 2.93128181 134 123 91
53395.22601318 66805.96303988 2.95375252 119 106 78
53395.33779144 66805.90207243 2.94361973 141 131 99
53395.44861603 66805.84012985 2.93455577 135 126 97
53395.20903015 66805.93596411 2.95322824 123 111 82
53395.31985474 66805.87402296 2.94416451 126 115 84
53396.04438019 66805.84176493 2.89286351 146 136 103
53395.43162537 66805.81305456 2.93403172 144 135 105
53395.46979523 66806.34242010 2.93579197 142 130 95
53395.58161163 66806.28047991 2.92668462 167 152 115
53395.28348541 66806.07901812 2.94507289 163 147 116
53395.40048981 66806.01419830 2.93982792 139 129 95
53395.50315857 66805.66169024 2.91510963 143 132 96
53395.60876465 66805.60360050 2.90115762 158 148 113
53395.51230621 66805.95225763 2.93072152 141 130 96
53395.72328186 66805.54047346 2.88495827 150 137 103
53395.34718323 66806.19114542 2.94123912 157 143 109
53395.46417236 66806.12632608 2.93599391 152 141 105
53395.57352448 66806.06607819 2.91593242 130 120 90
53395.83510590 66805.47853374 2.87585187 141 130 97
53395.94840240 66805.41489983 2.87774229 124 115 86
53395.56313324 66805.77600384 2.91838408 143 132 99
53395.67866516 66805.71287823 2.90214133 165 153 117
53395.41087341 66806.30427265 2.93737745 156 145 109
53395.52268982 66806.24233294 2.92827034 143 132 95
53395.63346863 66806.18036366 2.91820788 139 129 97
53395.69239044 66806.21951008 2.91659474 149 142 114
53395.63382721 66805.84607697 2.91240668 157 146 112
53395.47456360 66806.41640091 2.93354321 162 140 106
53395.58538055 66806.35445881 2.92447877 164 136 102
53395.66011810 66806.08706141 2.90562057 228 238 234
53395.77439117 66806.02340174 2.90646911 197 212 212
53395.70333099 66806.28961325 2.91819286 148 115 90
53395.53207397 66806.53240585 2.92586231 149 138 103
53395.64904022 66806.46655893 2.91964602 152 140 104
53395.75962830 66806.40611124 2.92857456 164 153 116
53395.88520050 66805.96245909 2.89737773 172 189 190
53395.99950409 66805.89882755 2.89922523 129 118 90
53396.11028290 66805.83785820 2.88913560 153 142 106
53395.73649597 66805.49357033 2.88768816 142 131 97
53395.53099823 66806.45623970 2.92100286 162 144 110
53395.52813721 66805.64571476 2.91347528 149 138 103
53395.64266205 66805.58258677 2.89727616 147 135 101
53395.75344086 66805.52061796 2.88721347 144 132 98
53395.59082031 66805.75883961 2.90965748 139 128 95
53395.70259857 66805.69687223 2.89955139 155 141 106
53395.81343079 66805.63493061 2.89048743 147 134 99
53395.92523956 66805.57399035 2.88135314 157 146 109
53395.64529419 66806.39360666 2.92282319 147 129 96
53395.65180969 66805.87315464 2.91288710 150 140 107
53395.67870331 66805.78801489 2.90607214 138 127 93
53395.76260376 66805.81118536 2.90282512 134 122 92
53395.87959290 66805.74636602 2.89758062 148 137 103
53395.99141693 66805.68442583 2.88847303 145 134 100
53396.09950256 66805.62464333 2.88547564 131 121 89
53395.71546173 66805.98525476 2.90805483 236 249 249
53395.82628632 66805.92331314 2.89899087 102 114 116
53395.93957520 66805.86067820 2.90085363 137 123 93
53396.05137634 66805.79871130 2.89074826 154 144 109
53396.16466522 66805.73607635 2.89261174 131 121 89
53395.83806610 66806.13652897 2.90260768 138 153 154
53395.75855255 66806.32994556 2.92371559 138 122 92
53395.77816010 66806.09738016 2.90426373 106 118 118
53395.88628387 66806.03762531 2.90226460 235 247 249
53396.00053406 66805.97496605 2.90308619 151 140 106
53395.94519806 66806.07677221 2.90065169 210 216 209
53395.66767120 66805.64274693 2.89954495 140 127 93
53395.77949524 66805.58080769 2.89043808 151 138 103
53395.74565125 66805.78413725 2.90329981 148 136 103
53395.48994446 66805.70859385 2.91237998 158 147 111
53395.60176849 66805.64665461 2.90327358 139 128 94
53395.71258545 66805.58471251 2.89420962 151 137 103
53395.82436371 66805.52374506 2.88407636 146 135 100
53395.94136810 66805.45792532 2.87885880 127 117 86
53395.86265564 66805.71831799 2.89808273 144 133 99
53395.97342682 66805.65734863 2.88799191 126 114 83
53396.08773041 66805.59371662 2.88984036 143 133 101
53395.57383728 66805.73076534 2.90915990 139 128 95
53395.68565369 66805.66982460 2.90002584 134 119 85
53395.79648590 66805.60788250 2.89096236 140 127 92
53395.79052734 66805.72707462 2.89693809 150 134 102
53395.90825653 66805.54691458 2.88082862 157 146 107
53395.90130615 66805.66510582 2.88687539 155 145 110
53396.01931000 66805.59928799 2.88161492 136 126 94
53395.66174316 66805.76096725 2.90654755 131 120 87
53395.77353668 66805.69899940 2.89644146 140 124 92
53395.88435364 66805.63805771 2.88734984 142 131 95
53396.00135803 66805.57223845 2.88213277 138 127 95
53395.23778534 66805.99396753 2.94938827 144 131 99
53396.15245819 66805.78198290 2.88986659 142 132 98
53395.76120758 66806.07033300 2.90473795 126 135 134
53395.65367126 66805.54656553 2.89579463 141 129 96
53395.76815033 66805.48241091 2.87862420 140 130 96
53395.59153748 66806.16929197 2.92031693 143 132 98
53395.59882355 66805.71578836 2.90749812 127 116 83
53395.71361542 66805.66085100 2.89807034 146 131 97
53395.82914734 66805.59672594 2.88185525 148 136 99
53395.94244385 66805.53409195 2.88371825 154 143 106
53395.44805908 66806.24139071 2.93851566 158 146 111
53395.80644226 66805.67798471 2.89260268 153 138 105
53395.56253815 66806.17823601 2.92131734 151 140 104
53395.45757294 66806.38932467 2.93301868 153 138 103
53395.66769409 66805.82403660 2.90755367 152 141 107
53395.87446594 66806.00667143 2.90563035 234 248 250
53395.98258972 66805.94791651 2.90360379 144 134 102
53396.10061646 66805.95823479 2.90224743 150 139 106
53396.21492004 66805.89460325 2.90409470 97 89 65
53395.82839966 66806.25690699 2.91571951 140 109 88
53395.93553162 66806.19715023 2.91376328 133 108 86
53396.05353546 66806.13233280 2.90847540 133 112 88
53396.16309357 66806.07085609 2.91647506 109 96 74
53396.28008270 66806.00603676 2.91123080 126 116 86
53395.59098816 66806.57055235 2.92427683 159 148 109
53395.70524597 66806.50789261 2.92509818 149 137 99
53395.81854248 66806.44425821 2.92698908 167 157 120
53395.97555542 66805.99094248 2.90472078 146 137 105
53395.09368896 66805.92345810 2.94752097 152 138 104
53395.52025604 66806.50145054 2.92922783 136 123 90
53395.20795441 66805.85979843 2.94836903 119 108 77
53395.82032776 66806.04250479 2.90496683 230 247 248
53395.93114471 66805.98056316 2.89590287 175 177 160
53396.04545593 66805.91693068 2.89775062 106 95 68
53396.15352631 66805.85814857 2.89472508 145 135 102
53395.87633514 66806.14981318 2.90860486 180 174 165
53395.31877136 66805.79885626 2.93927789 138 128 96
53395.63208771 66806.43951082 2.92012095 142 130 95
53396.09958649 66805.88209677 2.89838672 157 147 112
53395.77951813 66805.76209736 2.89844680 150 136 103
53395.89431000 66805.70815897 2.88899136 143 133 98
53396.20766449 66805.82331467 2.89536119 124 113 83
53396.00242615 66805.64840412 2.88699198 148 137 103
53395.17079926 66805.92270803 2.94822979 151 137 106
53395.27787781 66805.86292410 2.94527483 148 138 106
53395.38970184 66805.80098343 2.93616843 124 113 84
53395.22457886 66806.04087067 2.94665861 156 136 105
53395.34156036 66805.97505140 2.94144106 133 123 90
53395.45339203 66805.91411114 2.93230700 145 133 101
53395.28826904 66806.15299845 2.94282413 140 119 90
53395.40156555 66806.08936453 2.94471502 126 112 82
53395.51708221 66806.02623892 2.92847276 148 137 103
53395.35195160 66806.26512575 2.93899035 158 145 110
53395.46896362 66806.19930744 2.93377280 160 149 112
53395.67579651 66805.85717630 2.91129589 143 133 101
53395.79777527 66805.79836369 2.90567183 144 130 99
53395.90855408 66805.73739386 2.89558125 151 140 106
53396.02037811 66805.67545414 2.88647461 154 143 108
53395.69751740 66805.95820522 2.90857220 237 249 249
53395.15280914 66805.89563036 2.94774890 160 148 115
53395.26710510 66805.83199835 2.94959641 136 125 93
53395.37271881 66805.77390814 2.93564463 148 139 106
53395.21280670 66806.00994349 2.95102239 151 133 104
53395.33081055 66805.94412613 2.94576216 138 128 95
53395.44158173 66805.88315678 2.93567252 130 119 89
53395.72007751 66806.20134687 2.90789580 195 202 190
53395.80933380 66805.89626503 2.89946556 132 143 145
53395.80421448 66806.15757036 2.90748787 105 116 115
53395.58078003 66806.13836670 2.92463827 146 135 101
53395.41067505 66806.37024736 2.93556356 154 143 108
53395.52647400 66806.31631184 2.92606449 159 146 109
53395.64342499 66806.25046492 2.91984820 157 144 108
53395.58613586 66806.42140770 2.92159605 152 134 100
53395.70442200 66806.36477947 2.92307901 148 129 98
53395.64612579 66806.53571987 2.92487001 157 146 107
53395.75939178 66806.47305822 2.92573428 150 139 102
53395.27649689 66806.12207079 2.94718885 143 114 88
53395.38456726 66806.06228828 2.94419146 119 106 76
53395.49909973 66805.99916172 2.92799163 144 133 99
53395.82115936 66806.18461800 2.90701318 145 144 133
53395.74538422 66806.37687683 2.92198420 152 139 105
53395.93815613 66806.11979914 2.90176916 181 172 152
53395.92121887 66806.09275055 2.90224338 228 234 229
53395.55092621 66805.82290888 2.91561151 155 145 111
53395.63156128 66805.96208429 2.91130161 184 193 187
53395.51174927 66806.35351849 2.93468118 162 145 109
53395.62353516 66806.29255104 2.92454839 164 143 108
53395.41260529 66805.70983934 2.92969036 142 132 98
53395.47630310 66805.82196712 2.92585659 131 122 92
53396.11383057 66805.91133165 2.90497708 131 120 88
53396.22466278 66805.85038996 2.89588523 109 99 72
53395.83914948 66806.21169519 2.90749431 118 87 72
53395.95244598 66806.14906073 2.90935731 134 101 80
53396.06570435 66806.08539963 2.91024923 135 105 83
53396.17630005 66806.02495241 2.91917801 110 97 74
53396.28812408 66805.96301222 2.91007090 149 140 110
53395.90161133 66806.32531548 2.92169499 140 129 100
53396.01486969 66806.26165438 2.92258692 153 143 109
53396.12298584 66806.20189905 2.92058802 155 145 112
53396.23999023 66806.13708019 2.91534376 159 148 111
53396.35076904 66806.07511091 2.90528107 150 139 104
53395.17887115 66805.95582008 2.95097351 121 106 78
53395.29586792 66805.89000082 2.94575644 120 110 80
53395.40664673 66805.82803202 2.93569374 124 114 85
53395.74238586 66805.90014315 2.90223837 122 129 123
53395.54512024 66805.67278957 2.91399956 152 141 105
53395.65590668 66805.61182022 2.90390968 139 126 92
53395.77143097 66805.54769468 2.88769507 155 142 107
53395.61544800 66806.07714939 2.91382337 156 159 143
53395.88224030 66805.48675299 2.87860346 128 118 85
53395.60877228 66805.78588963 2.90913868 133 121 90
53395.71959686 66805.72394800 2.90007520 141 127 93
53395.83142853 66805.66200781 2.89096785 145 132 98
53395.94219971 66805.60103846 2.88087797 135 125 90
53395.66876221 66805.90020275 2.91241312 140 136 113
53395.78058624 66805.83826256 2.90330577 149 146 125
53395.89136505 66805.77629375 2.89324355 140 128 94
53396.00218964 66805.71535110 2.88415241 156 145 110
53396.11648560 66805.65171957 2.88599944 130 120 88
53395.89087677 66806.36952734 2.92994714 78 69 49
53395.99900055 66806.31077242 2.92792130 141 131 99
53396.11595154 66806.24492550 2.92170501 141 131 99
53395.85050964 66805.84138775 2.90021157 155 143 119
53395.24526215 66806.06576109 2.94007421 166 143 113
53395.35956573 66806.00212860 2.94192219 141 131 98
53395.47034454 66805.94115925 2.93183208 152 141 107
53396.22678375 66806.18298388 2.91264105 154 143 105
53395.72626495 66806.01620722 2.90473223 236 248 249
53395.84327698 66805.95038843 2.89951491 100 115 118
53396.34107208 66806.12035131 2.91446114 143 132 98
53395.95753479 66805.88772917 2.90033627 145 133 103
53396.06835938 66805.82578659 2.89127278 149 139 104
53396.18265533 66805.76315451 2.89309263 132 122 89
53395.60312653 66806.44848299 2.92211986 139 127 92
53395.79614258 66806.12445831 2.90474439 103 116 117
53395.90422821 66806.06467533 2.90174699 237 247 248
53395.96746826 66805.77554083 2.89399576 129 117 85
53396.07929230 66805.71460056 2.88486123 135 125 93
53395.59293365 66805.91014433 2.91840410 131 122 92
53396.05869293 66805.94716358 2.90435648 109 98 70
53395.34017944 66806.23419857 2.94335508 156 143 109
53396.17670441 66805.88134670 2.89909601 128 119 89
53395.45196533 66806.17223167 2.93324900 148 137 101
53395.56278229 66806.11128950 2.92415786 164 154 117
53395.78647614 66806.24483538 2.91785574 122 98 78
53395.89730835 66806.18389368 2.90876460 100 70 60
53396.01156616 66806.12023401 2.90961361 138 108 84
53396.12486267 66806.05759907 2.91147685 99 77 58
53396.23542023 66805.99612522 2.91943359 150 144 120
53395.39367676 66806.34317160 2.93503928 140 130 95
53395.83875275 66806.35530138 2.92757559 107 96 70
53395.95576477 66806.28948164 2.92235827 141 131 98
53396.07402802 66806.23385382 2.92381454 115 105 76
53396.18485260 66806.17191267 2.91475058 165 153 117
53396.29910278 66806.10825253 2.91559982 149 139 104
53395.52223969 66805.84007025 2.92438102 146 136 104
53396.05170441 66805.98921824 2.90649915 135 124 92
53395.51465607 66806.28535748 2.92943025 148 136 100
53395.56417084 66805.85214186 2.92224431 143 133 101
53396.08992004 66806.00347424 2.91147041 145 133 101
53396.20422363 66805.93984222 2.91331863 110 102 78
53395.81153107 66806.30602312 2.92109585 149 133 103
53395.92849731 66806.24017572 2.91487956 143 127 100
53396.04279327 66806.17654419 2.91672778 108 95 71
53396.15977478 66805.93043518 2.90347409 128 118 88
53395.88756561 66806.22910595 2.91694617 106 79 66
53395.99839020 66806.16716480 2.90788269 146 120 96
53396.10894775 66806.10569048 2.91583943 121 106 82
53396.22225189 66806.04305601 2.91770244 139 130 101
53395.19107819 66805.90891504 2.95374656 125 113 83
53395.30803680 66805.84406757 2.94750309 137 127 95
53395.27272034 66806.04809237 2.94939470 162 148 116
53395.38353729 66805.98715019 2.94030333 140 130 97
53395.49532318 66805.92518234 2.93019748 137 125 95
53395.41738129 66805.78382015 2.92744160 117 107 77
53395.35478210 66805.92914772 2.94414330 131 121 88
53395.46556091 66805.86717892 2.93408084 100 89 64
53396.33676910 66805.97892857 2.90153074 126 115 83
53395.62648010 66806.22341728 2.92032337 153 142 106
53395.94501495 66806.33469296 2.93058372 148 138 110
53396.05683899 66806.27275324 2.92147636 122 111 80
53396.17013550 66806.21011877 2.92333984 150 139 103
53396.28191376 66806.14815140 2.91323423 145 134 99
53396.39273071 66806.08720970 2.90414262 139 128 94
53395.91378784 66806.27838278 2.92346907 151 139 109
53395.47299194 66805.68154621 2.91285491 147 136 100
53395.58477783 66805.61957884 2.90274954 132 122 88
53395.69560242 66805.55763721 2.89368510 140 127 94
53395.81011963 66805.49451017 2.87748647 139 128 95
53396.02560425 66806.21644306 2.91436243 142 131 101
53396.13890076 66806.15380859 2.91622567 140 130 99
53396.25717163 66806.09718084 2.91770887 141 130 96
53396.36795807 66806.03521204 2.90764618 146 135 102
53395.53916168 66805.79198217 2.91997528 139 128 94
53395.64476013 66805.73389149 2.90602279 137 126 92
53395.75929260 66805.66976500 2.88985133 153 137 104
53395.87628937 66805.60494566 2.88460612 163 152 114
53395.98437500 66805.54516363 2.88160920 144 133 99
53395.25473022 66806.02101469 2.94891334 153 139 106
53395.37173462 66805.95619535 2.94366837 139 129 96
53395.71363068 66805.84214067 2.90607905 147 137 106
53395.82176208 66805.78338480 2.90405202 145 129 97
53395.93627930 66805.71925783 2.88788033 135 124 91
53396.04435730 66805.65947533 2.88488245 152 141 107
53395.66031647 66806.02008724 2.90746212 234 247 250
53395.77114868 66805.95814514 2.89839816 104 116 116
53395.72141266 66806.39185524 2.92360306 151 138 103
53395.88545227 66805.89551258 2.90021777 152 144 124
53395.99870300 66805.83185148 2.90111017 148 137 106
53396.11053467 66805.77091074 2.89197564 148 138 105
53395.48355865 66805.89425611 2.93456197 92 80 56
53395.58216858 66805.87921906 2.92272496 127 117 86
53395.31842804 66806.13314247 2.94507933 140 124 93
53395.43542480 66806.06832361 2.93983436 135 124 91
53395.54476166 66806.00807571 2.91977286 151 142 108
53395.77223206 66806.21560049 2.91126561 191 192 177
53395.99731445 66806.09099865 2.90302324 159 145 120
53396.10787201 66806.03052425 2.91095281 133 114 88
53395.72031403 66806.13440037 2.91073561 104 114 113
53395.38210297 66806.24627018 2.94121790 138 123 90
53395.49293518 66806.18432903 2.93215370 148 137 100
53395.60846710 66806.12020350 2.91593885 143 134 102
53395.83213043 66806.07346010 2.90160084 233 248 249
53395.94539642 66806.00979805 2.90249324 176 178 160
53396.22116852 66805.96688986 2.91284370 132 127 106
53395.43962097 66806.36227512 2.93353701 160 148 113
53395.55663300 66806.29645681 2.92831922 162 148 110
53395.66840363 66806.23448849 2.91821432 151 139 105
53395.50331116 66806.47440290 2.92970276 168 150 117
53395.62032318 66806.40858412 2.92448521 143 125 92
53395.82949066 66806.33307266 2.92057800 137 125 95
53395.94278717 66806.26943827 2.92246866 153 142 110
53396.05978394 66806.20461893 2.91722417 115 104 78
53395.72839355 66806.34980106 2.92146015 143 125 95
53396.17403412 66806.14095974 2.91807318 141 131 98
53396.28116608 66806.08120346 2.91611719 132 121 87
53395.61437988 66806.00198317 2.90893674 201 215 215
53395.72249603 66805.94222879 2.90693760 171 183 181
53395.83950043 66805.87740898 2.90169358 189 199 195
53395.94657898 66805.81762505 2.89873910 122 108 79
53396.07229614 66805.75665522 2.88700414 137 127 94
53395.56700897 66806.58653069 2.92586827 158 147 108
53395.68026733 66806.52286911 2.92676020 153 142 103
53395.79456329 66806.46023607 2.92858028 162 151 115
53395.49101257 66805.78376055 2.91726708 146 136 102
53395.67436981 66806.11629629 2.91221118 149 153 147
53395.55320740 66805.88819122 2.92472458 125 115 84
53395.96715546 66806.11085415 2.90076828 174 163 142
53396.15609741 66806.11390972 2.91859078 127 116 89
53396.26417542 66806.05412722 2.91559291 131 121 89
53395.78518677 66806.05435467 2.90314674 167 184 186
53395.87395477 66806.41861582 2.93432546 118 109 82
53395.99195862 66806.35279846 2.92906523 104 95 69
53396.10278320 66806.29185677 2.91997385 145 135 102
53395.89944458 66805.99169397 2.90396810 236 248 247
53396.07771301 66806.04937983 2.90872526 140 122 94
53396.19100952 66805.98674488 2.91058850 119 111 87
53395.80781555 66806.48946953 2.93521380 140 130 96
53396.30283356 66805.92480564 2.90148115 136 127 98
53396.07667542 66805.97424126 2.90483737 130 118 87
53396.18993378 66805.91057968 2.90572953 114 105 79
53395.33078766 66805.76283693 2.93775368 144 134 102
53396.01274872 66805.92806101 2.90585876 113 102 73
53395.16686249 66805.99183989 2.95249772 109 87 62
53395.28115845 66805.92820787 2.95434570 123 112 82
53396.12457275 66805.86711979 2.89672470 151 141 106
53395.39193726 66805.86623812 2.94428349 137 127 96
53395.22806549 66806.10565996 2.93770909 151 118 91
53395.33862305 66806.04418516 2.94566607 130 119 86
53395.44944763 66805.98224306 2.93660259 144 134 100
53395.15361023 66805.96160698 2.94589257 134 115 87
53395.26316833 66805.90113020 2.95386457 119 108 78
53395.37769318 66805.83700371 2.93769288 123 112 82
53395.33541107 66806.16021824 2.94560337 149 135 101
53395.44722748 66806.09927845 2.93646860 146 135 100
53395.57437134 66806.39048004 2.92596030 167 135 103
53395.90019989 66805.51380301 2.87808514 137 126 90
53395.40232849 66806.15631294 2.94183159 164 153 117
53395.68647003 66806.33772993 2.92359734 149 107 84
53395.62306213 66805.81515217 2.91672802 139 128 95
53395.73758698 66805.75102568 2.90055633 143 131 97
53395.51683807 66806.09318542 2.92563224 174 164 125
53395.84836578 66805.68905544 2.89049363 145 133 99
53395.96018219 66805.62811565 2.88135910 137 126 94
53395.30146790 66806.10609484 2.94555449 150 134 103
53395.68053436 66805.93112898 2.90804839 216 226 221
53395.79753113 66805.86531019 2.90283132 192 202 198
53395.41847992 66806.04127550 2.94030929 140 129 96
53395.52407837 66805.98318529 2.92635679 146 135 101
53395.63183594 66806.50645781 2.91728115 153 142 105
53395.74243927 66806.44501066 2.92623663 146 135 98
53395.90565491 66805.80655527 2.90080523 146 133 100
53396.02013397 66805.74240112 2.88363409 139 129 96
53396.13343811 66805.67876720 2.88552499 122 113 81
53395.63244629 66806.10522509 2.91432023 154 154 136
53395.74421692 66806.04325724 2.90421438 222 233 231
53395.43867493 66805.95131826 2.94092321 143 133 98
53395.86122894 66805.97743797 2.89899707 161 182 185
53396.00431061 66806.04894495 2.90088034 147 137 105
53396.11490631 66805.98749781 2.90983582 151 138 106
53396.23190308 66805.92167854 2.90461874 114 107 84
53395.96934509 66805.91868305 2.89697027 161 151 119
53395.84169006 66806.28616714 2.92335129 150 133 105
53395.95347595 66806.22419977 2.91324544 137 122 93
53396.06678009 66806.16156578 2.91510868 124 113 87
53396.18107605 66806.09793329 2.91695595 133 122 93
53396.29432678 66806.03527164 2.91782093 128 118 86
53395.90416718 66806.39878798 2.93757939 84 77 56
53396.01593781 66806.33782053 2.92744660 120 110 80
53396.08631134 66805.85283613 2.89075446 153 143 107
53396.13294220 66806.27200127 2.92222953 142 133 99
53395.88924408 66805.44369936 2.87648749 123 114 83
53396.19342804 66805.79407930 2.88877130 135 125 92
53395.68135834 66805.52840233 2.88709545 137 125 92
53395.79312897 66805.46743441 2.87696242 136 126 92
53395.58669281 66806.01914740 2.91766334 156 158 144
53395.85135651 66806.16579008 2.91023946 133 130 124
53395.46601105 66806.26844072 2.93799782 159 148 112
53395.58053589 66806.20531368 2.92179799 159 148 112
53395.52869415 66806.38156652 2.93417883 163 138 104
53395.64052582 66806.31962585 2.92507195 166 127 100
53395.75130463 66806.25765705 2.91500974 111 87 67
53395.80342865 66806.27288294 2.91735339 133 107 84
53395.52117157 66805.76490402 2.91949439 145 135 99
53395.63670349 66805.70077944 2.90327930 145 134 100
53395.27725220 66806.18901968 2.94430518 147 133 101
53395.38436890 66806.12926292 2.94234991 163 152 117
53395.49614716 66806.06829548 2.93221664 148 137 102
53395.74752808 66805.63883781 2.89421535 149 134 100
53395.36516571 66806.21822262 2.94172001 142 126 94
53395.47594452 66806.15725279 2.93163013 147 136 99
53395.59046936 66806.09312582 2.91545796 146 137 105
53395.85929871 66805.57786989 2.88408256 153 142 104
53395.96641541 66805.51811314 2.88212681 153 142 106
53395.13562775 66805.93452978 2.94541144 154 137 105
53395.91155243 66806.21312857 2.91535497 130 103 86
53396.02854919 66806.14730930 2.91013765 139 116 92
53395.24992371 66805.87189722 2.94723153 156 146 114
53395.36471558 66805.81696033 2.93780327 136 126 95
53395.44136810 66805.76784182 2.92584991 138 128 96
53395.19931793 66806.04765749 2.94154954 147 123 93
53395.31261444 66805.98402309 2.94344044 143 133 99
53395.42069244 66805.92424107 2.94044256 163 153 118
53395.58991241 66806.49538612 2.91939068 141 130 95
53395.42786407 66806.33134842 2.93790102 151 140 105
53395.70046997 66806.43391180 2.92734742 157 146 109
53395.81476593 66806.37127876 2.92916775 140 129 97
53395.53963470 66806.26938057 2.92779541 146 134 98
53395.65047455 66806.20743895 2.91873193 143 132 100
53395.25930023 66806.16196966 2.94482303 151 132 102
53395.37360382 66806.09833813 2.94667101 142 129 96
53395.48438263 66806.03736830 2.93658066 135 124 90
53396.13909912 66806.08683443 2.91806674 99 85 63
53395.43107605 66806.21431541 2.93799162 150 137 102
53395.54559326 66806.15118837 2.92179227 156 145 108
53396.03446960 66806.02908945 2.90313578 148 136 103
53395.48633575 66806.44732761 2.92917871 152 126 93
53395.60332489 66806.38150835 2.92396140 165 133 102
53395.49476624 66806.32644320 2.93415737 147 134 99
53395.60558319 66806.26550150 2.92506599 162 147 110
53395.71144867 66806.32175398 2.92196250 137 102 79
53396.25240326 66806.02320004 2.91995764 134 125 95
53395.56115723 66806.43738365 2.92323041 158 139 105
53395.67546082 66806.37375116 2.92507839 153 134 102
53395.78253937 66806.31396723 2.92212391 144 129 99
53395.57456970 66806.32350588 2.92780185 168 149 111
53396.14507294 66805.96864176 2.91206336 144 132 101
53395.62115479 66806.55169582 2.92650437 159 148 109
53395.73540497 66806.48803711 2.92735338 162 151 113
53395.84600830 66806.42758942 2.93628120 162 152 118
53395.55001831 66806.55945539 2.92534494 158 147 110
53395.66332245 66806.49582100 2.92723536 147 136 98
53395.77657318 66806.43315935 2.92809963 155 144 107
53396.25688934 66805.90670156 2.90295672 125 117 92
53395.26793671 66805.97511101 2.95161581 141 130 98
53395.37876892 66805.91316938 2.94255209 133 123 90
53395.49429321 66805.84904432 2.92633700 113 104 77
53395.87038422 66806.26800585 2.91460824 150 133 106
53395.98368073 66806.20537186 2.91647196 154 140 110
53396.09693909 66806.14170980 2.91736341 119 109 82
53396.21123505 66806.07907724 2.91918373 132 121 90
53395.79717255 66806.20059633 2.90860510 176 176 161
53396.01859283 66806.07820654 2.90846896 151 132 104
53396.13185120 66806.01454592 2.90936136 114 92 69
53396.24615479 66805.95191288 2.91118097 139 133 108
53395.85964203 66806.31321669 2.92283320 122 110 82
53395.33163452 66806.08723879 2.94778156 155 143 110
53395.96775818 66806.25346184 2.92083430 148 137 104
53396.08476257 66806.18864250 2.91558933 129 120 93
53396.19802094 66806.12498093 2.91648173 145 134 100
53396.30614471 66806.06622601 2.91445541 138 127 94
53395.44245911 66806.02529764 2.93871737 141 131 97
53395.55794525 66805.96114445 2.92150426 138 129 98
53395.86192322 66806.37849951 2.93194675 87 77 53
53395.97000122 66806.31871700 2.92894888 143 133 102
53396.09101105 66806.26092911 2.92433858 135 125 94
53395.92259979 66805.83360291 2.90033031 161 147 114
53396.03441620 66805.77166367 2.89122343 145 134 100
53395.38914490 66806.20324373 2.94010067 153 139 105
53395.50614929 66806.13742495 2.93488336 151 141 103
53396.32205963 66806.01713562 2.91012001 125 114 82
53395.92910004 66806.38378382 2.93491817 77 69 50
53396.04610443 66806.31796455 2.92970109 122 111 81
53396.14771271 66805.70802927 2.89311433 125 116 84
53395.45283508 66806.31537199 2.93626690 144 134 99
53395.56362152 66806.25340223 2.92620420 152 140 103
53395.67914581 66806.19027758 2.90996146 137 132 106
53395.64939117 66806.13227272 2.91384506 140 134 113
53395.42861938 66806.39729738 2.93504572 156 142 106
53395.53943634 66806.33635521 2.92595434 168 151 113
53395.91822052 66805.61601686 2.88249755 136 125 90
53395.56171417 66806.03512335 2.91929841 142 132 101
53395.50792694 66805.73567152 2.91286087 152 141 105
53395.65524292 66806.28141975 2.91648316 162 142 109
53395.61874390 66805.67372942 2.90379763 150 139 104
53396.03151703 66805.55338240 2.88436055 116 106 75
53396.20278931 66806.19896221 2.91423297 153 141 104
53396.15792084 66806.25602436 2.92059469 145 135 100
53395.73053741 66805.61176205 2.89369178 148 133 99
53396.31091309 66806.13920736 2.91223383 138 127 94
53395.84134674 66805.55081987 2.88460088 148 137 101
53395.51648712 66806.42747211 2.93143368 149 120 88
53395.62731171 66806.36553001 2.92236972 160 125 96
53395.74160767 66806.30289793 2.92419004 129 102 79
53395.58018494 66806.53959942 2.92759943 152 141 104
53395.92441559 66805.43087769 2.87933397 123 115 85
53395.68730164 66806.48084259 2.92561650 151 139 102
53395.80155945 66806.41718340 2.92646503 152 142 105
53395.68538666 66806.26156378 2.91873789 153 136 104
53395.61361694 66805.93503475 2.91181993 124 118 94
53395.72544098 66805.87309456 2.90271306 130 125 103
53395.88694000 66806.43865919 2.93421507 113 105 78
53395.91013336 66805.40161514 2.87174511 117 109 81
53395.55690002 66805.70371723 2.90963531 152 141 106
53395.76223755 66806.14647102 2.90859890 104 116 116
53395.87924194 66806.08065224 2.90338111 235 247 249
53395.98737335 66806.02089739 2.90138268 156 147 114
53395.68907928 66806.07808971 2.90362144 231 241 239
53395.83869934 66805.81043291 2.90357757 154 139 110
53395.95051575 66805.74849272 2.89447117 134 123 91
53395.36464691 66805.74079609 2.93290091 161 151 118
53396.06135559 66805.68655157 2.88540697 160 150 115
53395.67731476 66806.04716253 2.90798521 235 247 249
53395.78539276 66805.98738003 2.90498829 104 118 119
53395.19580841 66805.98286819 2.95049858 113 96 70
53395.31281281 66805.91704893 2.94528151 143 133 102
53395.42462921 66805.85610867 2.93614745 131 122 92
53395.69136810 66806.14337158 2.91273403 128 135 129
53395.25949860 66806.09499598 2.94666457 160 130 104
53395.37650299 66806.02917671 2.94144726 146 135 103
53395.48832703 66805.96823692 2.93231320 136 125 91
53395.43060303 66805.73691654 2.93017149 147 137 104
