-2.89702082 4.64697695 -1.70109928 134 129 102
-2.64262414 4.44315529 -1.70035279 194 204 198
-2.75780272 4.50071383 -1.70040250 239 248 247
-2.87030959 4.56594229 -1.69249356 171 184 184
-2.58485842 4.55882215 -1.70152795 143 136 106
-2.70003724 4.61638069 -1.70157766 131 124 95
-2.59060669 4.48216534 -1.70087016 134 129 103
-2.69574881 4.54419231 -1.70099425 157 170 164
-2.81142044 4.60195971 -1.70104384 140 145 129
-2.92346406 4.66691256 -1.70116651 138 130 99
-2.63008356 4.47273254 -1.70064497 186 196 189
-2.74526238 4.53029108 -1.70069468 236 249 247
-2.85776901 4.59551954 -1.69278586 207 221 218
-2.57231808 4.58839941 -1.70182025 130 121 91
-2.64712167 4.51485109 -1.70093143 177 187 179
-2.75177050 4.57666874 -1.70105553 142 143 131
-2.86744237 4.63443613 -1.70110512 135 134 113
-2.57356882 4.44004726 -1.70058370 128 120 91
-2.68610549 4.50520897 -1.70070636 230 244 245
-2.80174732 4.56304312 -1.69272447 134 145 143
-2.91695595 4.62053490 -1.70080566 150 147 122
-2.62408042 4.61034632 -1.70181000 136 128 98
-2.61568785 4.42301083 -1.70028567 129 126 104
-2.72822428 4.48817301 -1.70040834 239 250 251
-2.84386635 4.54600716 -1.69242644 122 134 134
-2.55813122 4.53818464 -1.70145595 140 132 101
-2.67045879 4.60383940 -1.70158350 143 136 108
-2.67220259 4.45569658 -1.70034695 233 245 246
-2.78738141 4.51325512 -1.70039666 164 171 166
-2.89988804 4.57848358 -1.69248772 213 219 207
-2.61443710 4.57136297 -1.70152211 145 138 109
-2.72961569 4.62892151 -1.70157182 140 132 102
-2.58610940 4.41047001 -1.70029151 134 126 98
-2.69864583 4.47563171 -1.70041418 239 251 252
-2.81428766 4.53346586 -1.69243228 121 132 131
-2.92949629 4.59095764 -1.70051336 150 146 119
-2.64401555 4.58390427 -1.70151627 138 130 102
-2.91242862 4.54890633 -1.69219553 190 197 184
-2.62718654 4.54129314 -1.70122504 145 141 116
-2.74236536 4.59885168 -1.70127475 150 144 118
-2.85490179 4.66401339 -1.70139742 130 123 95
-2.94203687 4.56138039 -1.70022118 150 145 117
-2.65676498 4.55383396 -1.70121920 130 126 104
-2.76880860 4.61878681 -1.70134199 158 152 123
-2.88448024 4.67655420 -1.70139158 134 126 97
-2.57067180 4.50860739 -1.70116377 137 130 101
-2.68320823 4.57376957 -1.70128644 127 123 101
-2.79888010 4.63153696 -1.70133603 149 143 114
-2.60314727 4.45258808 -1.70057786 136 132 109
-2.71568394 4.51775026 -1.70070052 235 249 249
-2.83132577 4.57558441 -1.69271863 172 188 186
-2.54538178 4.56825495 -1.70175314 138 130 100
-2.56099844 4.46969128 -1.69284439 135 127 98
-2.66930532 4.52425671 -1.70092702 169 181 174
-2.78134918 4.58920956 -1.70104969 141 141 126
-2.61754322 4.50230980 -1.70093727 161 164 151
-2.72532725 4.55673313 -1.70098841 156 165 158
-2.83786392 4.62189484 -1.70111096 135 139 122
-2.65966201 4.48527384 -1.70063913 223 236 237
-2.77170563 4.55022669 -1.70076191 173 180 175
-2.88737750 4.60799408 -1.70081151 202 209 198
-2.88285017 4.53636503 -1.69220138 128 141 141
-2.59760809 4.52875185 -1.70123088 142 137 110
-2.71278667 4.58631039 -1.70128059 134 130 106
-2.82532334 4.65147209 -1.70140326 138 132 104
-2.59450197 4.59780502 -1.70181584 132 124 94
-2.76537061 4.21538353 -1.70603728 144 136 106
-2.88051963 4.27300835 -1.69805539 163 161 138
-2.99619126 4.33077621 -1.69810498 190 185 159
-2.70781422 4.33055735 -1.70720756 161 167 159
-2.81556845 4.38504696 -1.69922721 149 168 172
-2.92810512 4.45020914 -1.69934988 240 251 249
-2.69628549 4.21234179 -1.69823670 134 127 98
-2.80885196 4.27743721 -1.70639086 176 183 172
-2.98051572 4.36774778 -1.69847035 231 234 224
-2.91709924 4.33213615 -1.69841039 240 246 240
-2.70882607 4.18276453 -1.69794452 137 128 98
-2.82139254 4.24785995 -1.70609868 157 150 121
-2.93703437 4.30569410 -1.69811666 180 176 151
-2.65126944 4.29793835 -1.69911480 138 131 105
-2.76694131 4.35570574 -1.69916439 124 135 134
-2.87208319 4.41773272 -1.69928849 239 251 253
-2.73576236 4.20290899 -1.69801164 134 126 97
-2.85097098 4.26040077 -1.70609272 150 146 121
-2.79494905 4.22792435 -1.70603144 155 147 117
-2.90696287 4.29294395 -1.69812262 181 177 153
-2.63712859 4.18725967 -1.69824839 144 137 105
-2.75280023 4.24502754 -1.69829798 205 208 192
-2.86797905 4.30258560 -1.69834769 172 186 183
-2.68784904 4.35706568 -1.69946980 163 168 160
-2.80302787 4.41462421 -1.69951952 197 209 209
-2.91535544 4.48027897 -1.69964695 169 187 188
-2.96661282 4.31823492 -1.69811082 185 181 156
-2.64677191 4.22624302 -1.69853628 164 157 126
-2.76247358 4.28394365 -1.70661736 177 187 184
-2.87448740 4.34896326 -1.69870853 236 250 251
-2.99015903 4.40673065 -1.69875813 184 181 159
-2.58900642 4.34190941 -1.69971144 160 150 120
-2.70467806 4.39967728 -1.69976103 240 249 247
-2.81985688 4.45723581 -1.69981074 152 162 160
-2.93236375 4.52246428 -1.69190180 152 159 147
-2.72635698 4.22509193 -1.69823074 137 134 112
-2.83843040 4.28997803 -1.70638502 136 146 137
-2.94667768 4.34467697 -1.69840455 235 240 233
-2.66091275 4.33692169 -1.69940269 120 116 97
-2.77344942 4.40208340 -1.69952536 185 194 191
-2.88912106 4.45985079 -1.69957495 173 194 197
-2.68084788 4.31047964 -1.69910896 156 155 134
-2.79338455 4.37564135 -1.69923162 122 134 135
-2.90166163 4.43027353 -1.69928265 239 251 252
-2.91974235 4.26280689 -1.70585704 133 124 94
-2.66670704 4.19980097 -1.69824255 143 136 105
-2.78240871 4.25750160 -1.70632362 211 214 201
-2.88702774 4.31938601 -1.69841635 238 247 242
-3.01009417 4.38028860 -1.69846451 181 177 153
-2.63423157 4.25582027 -1.69882846 144 137 107
-2.74993300 4.31352091 -1.70690954 133 143 141
-2.86194682 4.37854052 -1.69900072 234 249 250
-2.97761846 4.43630791 -1.69905031 199 198 179
-2.60175586 4.31183958 -1.69941437 124 113 86
-2.71742773 4.36960697 -1.69946396 173 180 176
-2.82947135 4.43455982 -1.69958663 200 215 216
-2.94493389 4.49282026 -1.69964111 156 163 152
-2.69213772 4.42925453 -1.70005322 239 251 251
-2.80731630 4.48681307 -1.70010293 158 165 161
-2.67635036 4.23878384 -1.69853044 139 132 104
-2.79205203 4.29648495 -1.70661151 124 136 135
-2.90455866 4.36171341 -1.69870257 241 250 251
-2.61858487 4.35445070 -1.69970560 140 132 104
-2.73425651 4.41221809 -1.69975519 241 250 249
-2.84679317 4.47737980 -1.69987786 120 135 137
-2.96197200 4.53493834 -1.69992757 140 136 109
-2.83414197 4.21778965 -1.70580149 123 114 84
-2.94981360 4.27555704 -1.70585108 134 124 94
-2.66381001 4.26836109 -1.69882262 131 124 96
-2.77637649 4.33345652 -1.70697677 123 135 135
-2.89201832 4.39129066 -1.69899487 239 251 252
-2.60604429 4.38402796 -1.69999778 126 118 91
-2.71432161 4.43866014 -1.70004892 240 250 252
-2.82682824 4.50388861 -1.69213998 122 134 134
-2.63133430 4.32438040 -1.69940853 121 110 84
-2.74387097 4.38954210 -1.69953120 178 187 183
-2.85954261 4.44730997 -1.69958079 181 201 203
-3.02263474 4.35071135 -1.69817221 163 154 124
-2.62169099 4.28539753 -1.69912064 125 117 90
-2.73736262 4.34316492 -1.69917023 127 136 134
-2.84514689 4.39758825 -1.69922137 233 248 249
-2.95768356 4.46274996 -1.69934404 205 207 193
-2.97451234 4.50536108 -1.69963527 141 136 109
-2.96058059 4.39418983 -1.69876397 237 242 236
-2.86372042 4.23033047 -1.70579565 130 121 91
-2.97936225 4.28816462 -1.69781375 151 141 109
-2.69025326 4.28829670 -1.69888985 152 152 131
-2.80592513 4.34606409 -1.69893944 121 135 137
-2.92159677 4.40383148 -1.69898903 241 250 251
-2.63562274 4.39656878 -1.69999194 123 122 102
-2.74076486 4.45859575 -1.70011604 239 249 250
-2.85640669 4.51642990 -1.69213414 120 134 135
-3.02577066 4.28159142 -1.70561886 139 129 96
-2.73286533 4.27146912 -1.69859171 212 221 215
-2.84804392 4.32902765 -1.69864130 158 180 184
-2.67509961 4.38713598 -1.69976687 210 219 213
-2.79027843 4.44469452 -1.69981658 235 244 242
-2.90278506 4.50992298 -1.69190764 119 134 134
-2.99932718 4.26165628 -1.70555162 142 132 101
-2.70279384 4.25871944 -1.69859755 134 135 117
-2.81849527 4.31642008 -1.70667863 118 132 133
-2.93413734 4.37425423 -1.69869673 241 249 248
-2.64816332 4.36699152 -1.69969976 138 135 117
-2.76069999 4.43215370 -1.69982243 242 250 250
-2.87634182 4.48998785 -1.69184053 119 135 138
-2.89329886 4.24287176 -1.70578980 141 132 102
-3.00559664 4.30859327 -1.69788587 151 140 108
-2.72035456 4.30098009 -1.70691538 190 199 191
-2.83550358 4.35860491 -1.69893360 153 174 179
-2.94804001 4.42376709 -1.69905615 243 250 247
-2.66255927 4.41671324 -1.70005906 196 208 203
-2.77034330 4.47113657 -1.70011020 238 246 245
