-6.33552027 4.35590744 -1.64520133 141 137 113
-6.34806061 4.32633018 -1.64490914 128 123 98
-6.48645401 3.99992776 -1.64971638 132 122 95
-6.42868853 4.11559486 -1.65089166 76 68 48
-6.36349821 4.22819281 -1.64403689 136 127 101
-6.47388363 4.02957201 -1.64197719 132 125 97
-6.40875340 4.14203644 -1.65118527 112 100 75
-6.44744015 4.00963640 -1.64190996 141 133 104
-6.38967466 4.12530327 -1.64308512 147 136 107
-6.47991562 3.95361710 -1.64132404 123 115 90
-6.41475582 4.06614876 -1.64250076 148 142 114
-6.44122887 4.08601713 -1.65059948 127 122 98
-6.38364220 4.20125771 -1.64373827 119 110 84
-6.32294989 4.38555145 -1.63746202 136 133 110
-6.45998049 3.98005915 -1.64161777 129 119 91
-6.40221500 4.09572601 -1.64279294 110 101 76
-6.46113396 4.05964184 -1.64227426 132 125 97
-6.39618301 4.17168045 -1.64344609 132 123 96
-6.43469048 4.03970671 -1.64220703 144 137 106
-6.92568827 4.55379295 -1.64465010 92 88 68
-6.40907288 4.43071127 -1.64554894 113 110 89
-6.86478758 4.67685413 -1.64589846 130 123 96
-6.34388304 4.54330969 -1.63869417 120 114 91
-6.74418116 4.13553190 -1.63381982 99 94 73
-6.54610395 4.02521896 -1.64970469 147 140 112
-6.85967350 4.19369936 -1.58568048 89 87 67
-6.74090433 4.43134689 -1.69304883 68 67 52
-6.79168463 4.60101938 -1.71033323 78 74 57
-6.88301086 4.28268814 -1.58633256 99 94 73
-6.60428476 4.60953951 -1.69503653 106 95 70
-6.99815989 4.34031296 -1.57835078 78 81 67
-6.65246677 4.45475626 -1.70963645 50 48 36
-6.76816845 4.51245689 -1.71771753 59 59 47
-6.59777689 4.56316185 -1.69467556 89 81 61
-6.70297861 4.62505531 -1.71086264 91 82 61
-6.56074381 4.54761934 -1.67861986 98 88 67
-6.65811777 4.09023857 -1.64179587 104 102 81
-6.81262398 4.13869762 -1.60146296 110 105 82
-6.87053013 4.31213188 -1.60268784 110 105 82
-6.98254395 4.37715149 -1.59477901 59 61 49
-6.81483555 4.34062147 -1.62722790 90 88 69
-6.93427420 4.40870953 -1.62734926 48 49 40
-6.74826336 4.53883219 -1.72604263 61 59 45
-6.96674156 4.58039904 -1.59652543 124 120 95
-6.91637087 4.69920111 -1.59769917 95 92 71
-6.71605349 4.26360607 -1.65105224 115 107 83
-6.95923567 4.34982157 -1.59463882 78 79 65
-6.60605860 4.46132946 -1.70183134 68 63 49
-6.83377409 4.58404970 -1.70200372 73 70 53
-7.04610252 4.18606329 -1.52869880 83 101 74
-6.53356314 4.05479622 -1.64999688 129 124 97
-6.64539814 4.12024212 -1.65012443 74 71 54
-6.75361538 4.17500782 -1.63411260 91 83 63
-6.70351315 4.29318333 -1.65134442 143 137 108
-6.80859518 4.35534334 -1.63540554 82 80 63
-6.92380381 4.41283512 -1.64348674 48 48 38
-6.40750265 4.29038906 -1.65242183 120 113 87
-6.35305119 4.39823484 -1.64548767 122 118 96
-6.46512461 4.46312094 -1.65364182 98 92 72
-6.28786135 4.51083326 -1.63863277 147 143 120
-6.45878983 4.12827778 -1.65891719 65 61 46
-6.68650484 4.25099850 -1.65908957 100 95 75
-6.36559153 4.36865759 -1.64519536 135 131 107
-6.88762760 4.35411692 -1.61903715 59 57 43
-6.99271011 4.41627693 -1.60309827 60 61 49
-6.47766495 4.43354368 -1.65334964 111 107 86
-6.91096592 4.38137960 -1.62720895 49 48 38
-6.30779648 4.48439121 -1.63833916 127 122 100
-6.93098354 4.12837172 -1.54471207 76 86 60
-6.99159145 4.29406929 -1.56192696 84 86 71
-6.41244507 4.54620886 -1.63846326 124 120 98
-6.47585726 4.17032957 -1.66723502 77 73 57
-6.58053827 4.23207617 -1.67592621 61 58 46
-6.89205933 4.13788033 -1.56100011 97 102 76
-6.66409016 4.01441717 -1.62507975 143 138 112
-6.77659702 4.07964563 -1.61717093 92 88 66
-7.00401354 4.20303297 -1.53702831 86 97 72
-6.94982338 4.53801394 -1.62836504 98 95 76
-6.94352388 4.09879446 -1.54441988 81 87 62
-6.88797712 4.64272499 -1.62143230 128 123 98
-7.00093746 4.27201986 -1.54564476 93 97 79
-6.48523283 4.14821339 -1.65898442 73 71 56
-6.60047340 4.20563412 -1.67563248 61 60 48
-6.54270792 4.32130098 -1.67680776 109 99 76
-6.65098524 4.37593317 -1.67685878 77 74 56
-6.76668644 4.43363380 -1.68493986 82 81 66
-6.87870026 4.49865341 -1.67703116 64 63 49
-6.82856846 4.61689568 -1.68623149 94 89 68
-6.82704878 4.25007820 -1.60233426 113 105 79
-6.98960400 4.48533010 -1.60368323 84 83 65
-6.93947172 4.60357237 -1.61288357 120 114 89
-6.54155445 4.24171782 -1.67615116 74 70 54
-6.65405941 4.30695105 -1.66770697 106 104 83
-6.90909767 4.17999840 -1.56128645 102 106 81
-7.01365709 4.24201632 -1.53731620 84 91 71
-6.61298227 4.17612791 -1.66677332 64 63 50
-6.44335222 4.22641563 -1.65978944 98 91 71
-6.55527830 4.29165697 -1.68454707 80 72 53
-6.66349363 4.34642696 -1.66799963 111 107 85
-6.78345680 4.41465282 -1.67668772 77 75 58
-6.89120913 4.46914721 -1.66817200 55 55 43
-6.49023533 4.40390015 -1.66108894 132 127 103
-6.84110880 4.58731842 -1.68593931 87 84 67
-6.54817152 4.57726765 -1.67034519 101 91 67
-7.03356218 4.21564054 -1.52899098 78 93 68
-6.51341915 4.08173132 -1.65029538 117 114 91
-6.73764277 4.08922100 -1.62542748 104 99 77
-6.63288736 4.14975262 -1.65844822 64 61 46
-6.74110460 4.20451832 -1.64243627 117 110 86
-6.91108418 4.44283867 -1.65181530 48 49 39
-6.78452635 4.26670551 -1.62672687 125 118 90
-6.88153601 4.43023109 -1.65985262 46 46 36
-6.39806747 4.31263828 -1.64460945 140 134 107
-6.89697313 4.33206701 -1.60275507 73 71 54
-6.39310646 4.24066734 -1.65206254 90 80 57
-6.33287716 4.42523670 -1.63775468 113 109 89
-6.58896065 4.41934443 -1.68548203 90 84 67
-6.44495058 4.49012280 -1.64590895 116 111 89
-6.96056223 4.14091253 -1.54470623 69 84 59
-6.96549892 4.50104237 -1.62799978 69 68 54
-7.01849794 4.31428003 -1.55396247 94 97 81
-6.50230074 4.19026518 -1.66730225 79 76 60
-6.61011696 4.24461699 -1.67592037 69 69 56
-6.55235147 4.36028385 -1.67709553 114 104 79
-6.88831186 4.53770781 -1.66875207 81 78 60
-6.45122194 4.41360855 -1.65328240 124 120 98
-6.49473286 4.47559547 -1.66166747 94 86 67
-6.83054638 4.65337420 -1.66992724 119 110 84
-6.50638914 3.97348595 -1.64942276 93 81 59
-6.61463642 4.02818489 -1.64144230 115 108 83
-6.86204767 4.12499666 -1.57706904 101 100 77
-6.91258907 4.29522896 -1.58632672 78 76 59
-7.02506590 4.36052418 -1.57038641 76 79 65
-6.68204546 4.46729708 -1.70963061 52 51 40
-6.79774714 4.52499819 -1.71771169 64 63 49
-6.61685514 4.57989550 -1.70277572 87 79 59
-6.73255682 4.63759613 -1.71085680 108 99 75
-6.38600206 4.52627325 -1.63839614 113 109 88
-7.07617426 4.19881344 -1.52869284 87 103 77
-6.56000662 4.07473183 -1.65006411 119 113 89
-6.67546940 4.13299227 -1.65011859 77 76 61
-6.72566700 4.30265570 -1.64330852 147 139 108
-6.83817387 4.36788416 -1.63539970 57 56 43
-6.95021772 4.43283701 -1.63552248 47 47 38
-6.43708086 4.30292988 -1.65241599 121 114 88
-6.90307140 4.54404497 -1.66071761 77 73 55
-6.37209988 4.41503525 -1.64555633 105 101 80
-6.84527588 4.65977812 -1.65386128 114 109 84
-6.31430435 4.53076839 -1.63870001 135 129 105
-6.90460014 4.10830307 -1.56070781 103 105 77
-6.96201324 4.28152800 -1.56193280 75 76 61
-6.55409479 4.21214056 -1.67585897 67 64 49
-6.66659975 4.27737379 -1.66741467 110 107 86
-6.49626780 4.32794523 -1.66043580 129 121 95
-6.60889578 4.39290285 -1.68518829 85 80 62
-6.87218428 4.16418886 -1.57735670 89 92 70
-6.54370594 4.50550079 -1.67833352 87 79 61
-6.92965698 4.33728075 -1.59464467 83 83 68
-6.80422544 4.57144213 -1.71004105 70 67 51
-6.90477753 4.62367725 -1.62121165 129 124 100
-6.80205727 4.30903244 -1.62701309 122 117 91
-6.91720629 4.36665773 -1.61903131 52 52 41
-6.96455288 4.54441786 -1.61229920 118 113 90
-6.67920780 4.53572416 -1.72627366 71 68 54
-6.90678740 4.66008472 -1.61347437 123 117 92
-6.42317820 4.25341702 -1.65205657 114 108 84
-6.99011087 4.15352058 -1.53666890 75 89 64
-6.52451658 4.19959974 -1.67586482 85 82 66
-6.63705301 4.26476145 -1.67598748 81 80 64
-6.46668911 4.31540442 -1.66044164 136 128 102
-6.58242273 4.37303400 -1.67708969 91 83 62
-6.84016180 4.17662334 -1.59364343 88 85 64
-6.91847324 4.15788221 -1.55303574 86 93 67
-6.52483416 4.48827887 -1.66969311 82 74 56
-6.45592260 4.19677162 -1.66752875 95 89 70
-6.56802797 4.26158667 -1.68424988 64 60 46
-6.58505774 4.01564360 -1.64144814 121 112 85
-6.68360806 4.31955862 -1.65966964 124 119 94
-6.69756460 4.08087254 -1.63353932 133 129 105
-6.51017046 4.37745810 -1.66079521 140 133 106
-6.85364914 4.55774117 -1.68564701 80 77 61
-6.75497770 4.25409746 -1.63476419 126 119 92
-6.92812252 4.48495722 -1.65210164 54 53 41
-6.40457535 4.35901594 -1.64497042 140 135 109
-6.87796068 4.60326624 -1.65327060 105 100 77
-6.34678030 4.47474909 -1.63811409 98 92 73
-6.46198893 4.53224134 -1.64619529 127 122 100
-6.64959955 4.52325010 -1.71824801 60 57 44
-6.76527119 4.58101749 -1.71829760 71 68 53
-6.94763422 4.50203276 -1.64413869 60 59 46
-6.43418360 4.37149000 -1.65299606 141 136 111
-6.89321280 4.60981226 -1.64523602 116 110 85
-6.37638855 4.48722363 -1.64613974 109 104 84
-6.57464695 4.59713173 -1.67897928 103 91 67
-6.48895502 4.55231857 -1.65429389 127 122 98
-6.98564911 4.36982393 -1.58667445 63 65 52
-6.63253164 4.48119831 -1.70993006 52 49 37
-6.43128681 4.44005060 -1.65357614 99 95 75
-6.87951708 4.68325806 -1.62983251 115 108 83
-6.76607323 4.37197065 -1.65979815 86 81 62
-6.87458849 4.09541941 -1.57677674 111 108 82
-6.92932940 4.27631474 -1.57004309 75 74 57
-6.69455576 4.43778658 -1.70130682 54 53 41
-6.81025743 4.49548769 -1.70938790 59 58 45
-6.94802141 4.17048979 -1.54499841 82 91 65
-6.62942553 4.55025148 -1.71051502 70 65 50
-6.75249195 4.61115408 -1.71056318 85 80 62
-6.77372980 4.14813948 -1.62578249 115 111 87
-6.83160591 4.32164049 -1.61897576 106 102 78
-6.94364977 4.38659334 -1.61909854 55 56 45
-6.70614433 4.55586863 -1.72634077 70 68 53
-6.92891121 4.66962385 -1.59740698 118 114 89
-6.48236561 4.21670723 -1.66759598 79 74 58
-6.59760618 4.27412748 -1.68424404 65 63 49
-6.82237864 4.40514898 -1.65986431 48 46 34
-6.53977871 4.38993216 -1.66882086 122 115 90
-6.87580347 4.56721401 -1.67761111 91 88 69
-6.53113365 4.53514910 -1.67005885 115 106 83
-6.52274084 4.34781408 -1.66853452 131 121 95
-6.81862640 4.06280947 -1.59277844 115 111 86
-6.63847446 4.40544367 -1.68518245 84 82 66
-6.94213772 4.30783701 -1.57828939 69 69 54
-6.70425892 4.47663641 -1.71765769 52 52 41
-6.81676579 4.54186487 -1.70974886 67 66 50
-6.64332867 4.59976435 -1.71087444 83 74 54
-6.75897026 4.65759850 -1.70289254 130 120 94
-7.04899979 4.11750317 -1.52811873 107 113 88
-6.53646040 3.98623586 -1.64941680 90 79 60
-6.64104986 4.04818678 -1.63347805 133 129 103
-6.47130013 4.09876728 -1.65059352 85 82 63
-6.69904566 4.22142124 -1.65879726 104 104 86
-6.41374350 4.21394110 -1.65176380 87 78 56
-6.46376228 4.38403130 -1.65299022 133 128 104
-6.40596676 4.49976492 -1.64613390 110 105 85
-6.86618996 4.52816391 -1.68535483 72 70 55
-6.91711044 4.07879210 -1.55238414 111 110 83
-6.97473288 4.25152445 -1.55360413 92 93 75
-6.57089520 4.19309282 -1.67563832 50 47 35
-6.51623249 4.30143642 -1.66817355 118 108 84
-6.76751804 4.22452021 -1.63447201 104 96 71
-6.62140656 4.36339188 -1.67686462 99 94 73
-6.73661518 4.42088366 -1.68494582 72 71 57
-6.85228682 4.47865152 -1.68499541 58 57 44
-6.56384993 4.47856569 -1.67803502 72 66 50
-6.71315670 4.33216619 -1.65163231 139 134 107
-6.82882833 4.38993406 -1.65168178 43 42 30
-6.94063282 4.45544624 -1.64377797 48 48 38
-6.41714573 4.32937193 -1.65270960 142 136 108
-6.89050102 4.57368898 -1.65297830 91 87 67
-6.86399174 4.26582098 -1.59429538 117 111 87
-6.96858120 4.32777214 -1.57835662 73 75 61
-6.73858976 4.49991608 -1.71772337 54 54 43
-6.84631443 4.55447245 -1.70171154 74 71 55
-6.35935020 4.44510555 -1.64585340 106 102 83
-6.47455883 4.50259733 -1.65393460 128 123 100
-6.76408625 4.10915613 -1.62549460 101 97 75
-6.81453800 4.27958870 -1.61065793 140 133 105
-6.92655182 4.34460831 -1.60274923 71 72 57
-6.97709322 4.51484060 -1.61200690 100 96 76
-6.69174862 4.50614691 -1.72598135 60 59 45
-6.91953659 4.63001442 -1.61317730 131 125 98
-6.72060490 4.04710245 -1.62514102 118 112 88
-6.89446354 4.06911087 -1.56042016 122 118 91
-6.94515419 4.23898363 -1.55360997 111 111 89
-6.54441977 4.17322874 -1.66700423 63 60 46
-6.65695620 4.23839045 -1.66712689 92 89 71
-6.48665428 4.28889561 -1.66817939 112 103 78
-6.59182787 4.35085106 -1.67687047 102 95 74
-6.70703650 4.40834284 -1.68495166 60 59 46
-6.82270861 4.46611023 -1.68500125 59 58 45
-6.53737497 4.45870161 -1.66940081 74 69 53
-6.80842400 4.64383078 -1.68652999 112 104 78
-6.68056345 4.38847399 -1.67685294 56 54 39
-6.87333775 4.24377155 -1.57801330 97 93 72
-6.88605738 4.21376801 -1.56968462 84 83 63
-6.76047611 4.44828939 -1.70114899 74 73 58
-6.59351826 4.49090672 -1.70212364 66 60 45
-6.81383896 4.61049175 -1.70229745 87 82 62
-6.93627596 4.67282581 -1.58937407 124 119 95
-6.79005480 4.46083021 -1.70114315 66 64 50
-6.62312651 4.50338125 -1.71014929 59 54 41
-6.97307253 4.11140203 -1.53638256 74 85 61
-6.91560555 4.22637606 -1.56164730 116 117 93
-7.03100872 4.28476954 -1.54563880 86 90 73
-6.63386345 4.62208033 -1.69503069 95 84 60
-7.01965952 4.16612816 -1.52863157 81 96 71
-6.50398493 4.04225540 -1.65000272 120 114 88
-6.51484156 4.16068792 -1.66701007 74 72 56
-6.63054514 4.21838427 -1.67562664 95 96 80
-6.45278645 4.26589155 -1.66008222 116 108 84
-6.61916351 4.09981394 -1.65005243 108 104 83
-6.62596369 4.43495417 -1.69350624 67 63 48
-6.73146152 4.16553497 -1.64214838 114 109 87
-6.67339993 4.61251402 -1.71086848 92 83 62
-6.43885469 4.15471983 -1.65921092 69 60 43
-6.78165913 4.33519888 -1.63533843 89 84 63
-6.75110054 4.47040558 -1.70939958 57 57 45
-6.89422560 4.40029430 -1.64349258 46 46 37
-6.38053608 4.27031136 -1.64432323 124 116 90
-6.56489182 4.33070660 -1.67680335 103 93 71
-6.90824699 4.51126575 -1.66845834 68 66 51
-6.50727367 4.44601822 -1.66137528 89 85 66
-6.85072231 4.62636852 -1.67819560 108 102 79
-7.07857847 4.13004446 -1.52811289 98 108 82
-6.56603909 3.99877691 -1.64941096 128 120 95
-6.57642031 4.44892168 -1.68577421 82 76 60
-6.67062807 4.06072807 -1.63347220 135 131 106
-7.01001596 4.12714529 -1.52834368 78 89 65
-6.60209560 4.05776215 -1.64173448 111 105 81
-6.71463251 4.12292385 -1.64185715 81 78 59
-6.50090837 4.11124182 -1.65861917 90 88 71
-6.72856426 4.23409557 -1.64272845 129 128 103
-6.98410845 4.22940826 -1.54535353 91 94 73
-6.58073854 4.52104378 -1.69438922 84 75 57
-6.69336510 4.58600569 -1.71860635 72 68 52
-6.80105925 4.64062881 -1.69456303 114 105 79
-6.76462126 4.29308081 -1.63505208 122 115 88
-6.92373562 4.70240307 -1.58966625 97 95 74
-6.93509388 4.53161001 -1.64443099 80 78 60
-6.42164326 4.40106726 -1.65328825 126 122 100
-6.87732840 4.64727688 -1.64560616 128 122 95
-6.36381817 4.51686764 -1.63840044 101 96 74
-6.46849680 4.57861853 -1.64655614 146 141 118
-6.37813234 4.33908033 -1.64490318 139 134 108
-6.57254696 4.04515457 -1.64977181 142 134 106
-6.68818903 4.10298872 -1.64178991 93 92 73
-6.74246693 4.28360796 -1.64308786 130 122 94
-6.91561174 4.51446772 -1.66042542 65 64 50
-6.39203501 4.38859320 -1.64526260 119 115 91
-6.85802555 4.62970829 -1.65356421 116 111 87
-6.58340359 4.16358709 -1.66677916 63 62 49
-6.52901411 4.27129507 -1.67644346 85 78 58
-6.64134169 4.33694983 -1.67657089 114 110 88
-6.75335360 4.40197420 -1.66812670 77 75 57
-6.86905718 4.45967054 -1.67674327 50 49 39
-6.51856327 4.56479311 -1.66231954 120 112 89
-6.33423948 4.50432634 -1.63840628 122 116 93
-6.79924965 4.37739277 -1.65168774 67 65 49
-6.97757006 4.18309784 -1.53696108 88 96 71
-6.51197624 4.22917700 -1.67615700 80 77 60
-6.62764788 4.28694439 -1.67620659 79 77 61
-6.85195732 4.41768980 -1.65985847 43 42 32
-6.56988239 4.40261126 -1.67738187 114 107 85
-6.51205492 4.51841593 -1.66195869 117 110 87
-6.44205379 4.55868292 -1.64648902 139 135 112
-6.48384094 4.06919003 -1.65030122 109 104 81
-6.60644388 4.12981749 -1.65838099 110 108 90
-6.71895075 4.19504595 -1.65047216 111 109 88
-6.42631388 4.18429708 -1.65950310 93 84 63
-6.76917839 4.36464262 -1.65169358 82 77 58
-6.88485003 4.42241049 -1.65174317 46 47 37
-6.36799574 4.29988861 -1.64461541 144 138 112
-6.48059225 4.36491680 -1.66080105 131 124 97
-6.41537237 4.47758198 -1.64591479 113 109 89
-7.03959465 4.13968611 -1.52833784 83 96 71
-6.75015354 4.05971050 -1.61710370 94 89 66
-6.79052877 4.19081736 -1.61804223 114 109 86
-6.84127903 4.36055660 -1.62729514 75 74 58
-6.96071720 4.42864466 -1.62741637 50 51 41
-6.80443144 4.24033022 -1.61840165 118 111 85
-6.63454151 4.00180960 -1.63311708 111 105 82
-6.56947088 4.11414099 -1.65838826 79 76 58
-6.69250727 4.17511034 -1.65040493 97 95 77
-6.74273491 4.34470749 -1.65162647 125 119 94
-6.85527182 4.40986919 -1.65174901 41 41 31
-6.96014500 4.47252226 -1.63581502 50 49 38
-6.45411873 4.34504843 -1.65270233 142 134 107
-6.90261793 4.58762932 -1.64501691 101 96 73
-6.38892889 4.45764637 -1.64584756 112 109 89
-6.97800970 4.47153187 -1.61967611 56 55 44
-6.84695387 4.22370291 -1.59400904 92 86 65
-6.72416449 4.45026112 -1.70933247 57 56 44
-6.83667088 4.51548958 -1.70142365 63 61 48
-6.65903378 4.56272602 -1.71854067 65 60 45
-6.77893543 4.63108969 -1.71063042 109 101 79
-6.91734791 4.59403324 -1.62895095 115 109 85
-6.32033682 4.45481396 -1.63804686 95 90 72
-6.66497755 4.42524576 -1.70131266 60 58 44
-6.43241024 4.51970005 -1.64620113 119 115 92
-6.60499287 3.98920178 -1.64115441 105 99 76
-7.06363344 4.22839069 -1.52898502 78 94 69
-6.53989220 4.10159969 -1.65839410 106 102 81
-6.65556431 4.15936756 -1.65844369 71 69 55
-6.84953737 4.15450716 -1.58539271 83 82 61
-6.83566427 4.10492802 -1.59306479 100 97 73
-6.90321350 4.31734514 -1.59457743 80 79 61
-7.01569080 4.38264036 -1.57863712 70 72 59
-6.69053364 4.03435278 -1.62514699 119 113 87
-6.66213989 4.49367237 -1.71795571 55 54 43
-6.77781200 4.55144024 -1.71800530 71 69 55
-6.51652527 4.01267815 -1.64971054 134 126 99
-6.62853909 4.07769728 -1.64180171 105 101 79
-7.06603765 4.15962172 -1.52840507 85 101 74
-6.75952911 4.03759432 -1.60885310 106 101 78
-6.80954742 4.20768404 -1.61007941 113 107 83
-6.79875088 4.08911848 -1.60913503 105 101 77
-6.87088728 4.37303114 -1.63532078 48 48 37
-6.98019934 4.44578743 -1.61142206 53 55 44
-6.92988825 4.56445599 -1.62865877 107 104 82
-6.93551111 4.20000029 -1.55332220 115 117 92
-7.04372835 4.25476599 -1.53731024 92 100 81
-6.52735186 4.13117695 -1.65868640 77 75 58
-6.64305353 4.18887806 -1.66676748 102 100 83
-6.47296047 4.23889017 -1.66781509 83 76 57
-6.58485651 4.30419779 -1.68454123 79 72 54
-6.69733143 4.36949778 -1.66806543 86 84 65
-6.81303501 4.42719412 -1.67668188 65 63 49
-6.95766497 4.20947313 -1.54528630 117 118 94
-6.55696011 4.14365149 -1.66671205 60 57 44
-6.66949701 4.20881319 -1.66683459 92 88 69
-6.49943542 4.25875425 -1.67644930 82 75 55
-6.61489820 4.31701469 -1.67650378 91 86 66
-6.72691011 4.38203859 -1.66805959 84 82 64
-6.84261370 4.43973494 -1.67667603 52 51 39
-6.54991531 4.42912436 -1.66910863 104 98 79
-6.51981401 4.41644096 -1.66108310 114 109 87
-6.84503984 4.08281183 -1.58481407 109 104 79
-6.90288591 4.25637913 -1.56997597 100 97 76
-6.78067923 4.48294640 -1.70939374 61 60 47
-6.60721207 4.54091263 -1.70248795 70 63 47
-6.72294331 4.59854650 -1.71860051 74 70 54
-6.79280043 4.39260769 -1.65987015 69 66 50
-6.86326265 4.59679127 -1.67790341 100 95 74
-6.58958530 4.08727264 -1.65005827 87 82 61
-6.70188284 4.15299416 -1.64215422 101 99 79
-6.78624010 4.11862898 -1.61745882 121 116 91
-6.84095144 4.29959059 -1.60269368 132 126 100
-6.95299530 4.36454344 -1.60281634 72 73 60
-6.71868467 4.52629137 -1.72604847 61 59 45
-6.94166088 4.63955355 -1.59710991 131 126 100
-6.95420122 4.60997629 -1.59681773 126 122 97
-6.75211048 4.32259130 -1.64337575 120 113 85
-6.86778212 4.38035870 -1.64342535 45 45 34
-6.80011320 4.16820812 -1.60978675 110 105 81
-6.85804939 4.34157562 -1.61904299 105 102 81
-6.97319794 4.39920092 -1.61106122 50 51 41
-6.78910732 4.05013514 -1.60884726 106 102 79
-6.73572254 4.56840944 -1.72633493 63 60 46
-7.00235319 4.45525980 -1.60338616 78 78 62
-6.95201206 4.57399511 -1.61259139 119 114 90
-6.89424658 4.68966198 -1.61376655 100 94 71
