-4.40937996 4.52385998 -1.62799001 33 45 50
-4.42162991 4.49596024 -1.64327002 62 62 58
-4.40335989 4.52511978 -1.63655996 18 18 18
-4.44575977 4.50708008 -1.64725006 117 115 100
-4.41754007 4.52253008 -1.56798005 76 84 87
-4.41082001 4.51368999 -1.56274998 75 79 80
-4.42355013 4.53053999 -1.58532000 82 91 95
-4.40676022 4.52903986 -1.61143005 64 75 78
-4.41296005 4.52050018 -1.63019001 26 39 48
-4.42117023 4.53487015 -1.59302998 78 78 74
-4.42507982 4.52088022 -1.60025001 59 61 57
-4.43154001 4.50693989 -1.61502004 53 56 55
-4.41653013 4.52195978 -1.56686997 86 92 93
-4.42117023 4.52418995 -1.57167006 77 90 94
-4.42384005 4.51776981 -1.61302996 53 58 58
-4.41429996 4.51626015 -1.63495004 44 44 40
-4.40466976 4.52351999 -1.63477004 9 9 9
-4.41604996 4.53587008 -1.64321995 38 39 39
-4.41970015 4.52092981 -1.61643004 61 69 69
-4.42245007 4.53047991 -1.57753003 74 81 83
-4.42312002 4.51847982 -1.63629997 33 41 46
-4.40693998 4.52418995 -1.62469995 61 71 74
-4.43064022 4.50578022 -1.65161002 56 55 44
-4.41961002 4.52919006 -1.59235001 60 62 61
-4.42776012 4.52210999 -1.57634997 62 66 66
-4.40982008 4.52038002 -1.63461006 31 30 28
-4.42542982 4.51501989 -1.56667995 110 115 115
-4.42753983 4.51076984 -1.56630003 98 105 106
-4.44396019 4.50664997 -1.64830005 113 106 86
-4.42159986 4.52368021 -1.57143998 76 85 86
-4.44283009 4.53779984 -1.64270997 125 123 112
-4.43834019 4.53566980 -1.64288998 128 126 112
-4.43542004 4.50765991 -1.58164001 67 69 65
-4.43037987 4.49366999 -1.57146001 150 149 138
-4.44514990 4.53332996 -1.64278996 105 105 97
-4.44080019 4.53092003 -1.64298999 127 122 107
-4.41136980 4.52274990 -1.63306999 12 13 15
-4.42186022 4.51107979 -1.62946999 49 61 67
-4.42085981 4.49353981 -1.64377999 67 69 68
-4.42508984 4.50825024 -1.62707996 47 49 48
-4.42225981 4.51122999 -1.63347995 38 42 44
-4.42741013 4.50377989 -1.62715995 47 48 45
-4.43621016 4.53180981 -1.64225996 118 117 108
-4.41322994 4.51844978 -1.63364995 20 20 19
-4.42282009 4.53032017 -1.57772005 71 82 85
-4.42360020 4.53072977 -1.58276999 80 82 80
-4.42142010 4.52473021 -1.57268000 70 80 83
-4.42207003 4.52489996 -1.59853995 66 70 70
-4.42662001 4.50486994 -1.62802994 54 57 57
-4.40918016 4.52355003 -1.63900995 11 11 11
-4.43052006 4.50496006 -1.56761003 135 138 134
-4.42567015 4.50977993 -1.62514997 35 38 39
-4.40822983 4.52505016 -1.56323004 82 83 78
-4.41318989 4.52739000 -1.56750000 129 128 118
-4.41016006 4.52040005 -1.56341004 106 111 109
-4.42054987 4.53014994 -1.58976996 46 46 41
-4.41734982 4.52944994 -1.57308996 76 85 86
-4.42159986 4.52028990 -1.56809998 80 90 93
-4.42627001 4.52285004 -1.57261002 84 91 89
-4.41455984 4.51134014 -1.56339002 126 129 123
-4.42406988 4.52708006 -1.57779002 64 68 66
-4.42460012 4.52702999 -1.58295000 51 54 52
-4.42648983 4.52301979 -1.57800996 56 63 63
-4.41456985 4.50017977 -1.56809998 126 125 118
-4.42663002 4.52274990 -1.58738005 65 68 64
-4.42820978 4.51863003 -1.58297002 61 64 60
-4.43034983 4.50208998 -1.56763995 141 143 139
-4.41455984 4.48908997 -1.57394004 169 167 150
-4.43753004 4.50001001 -1.57791996 88 93 90
-4.42054987 4.52435017 -1.62853003 29 33 33
-4.42595005 4.50432014 -1.64806998 23 23 21
-4.44347000 4.52834988 -1.64294004 146 146 135
-4.44723988 4.52872992 -1.64269996 124 122 113
-4.42922020 4.52015018 -1.64298999 53 53 49
-4.43827009 4.52447987 -1.64305997 140 140 130
-4.43386984 4.52233982 -1.64253998 120 120 110
-4.43032980 4.51042986 -1.60418999 70 74 72
-4.43542004 4.49651003 -1.59570003 90 92 88
-4.43228006 4.49595022 -1.57123005 129 129 122
-4.42676020 4.51712990 -1.59074998 63 63 58
-4.43457985 4.52407980 -1.64260995 119 119 111
-4.43913984 4.52627993 -1.64286005 135 135 124
-4.41460991 4.53192997 -1.59551001 57 61 63
-4.40239000 4.52532005 -1.63601005 27 29 28
-4.40775013 4.52440977 -1.64094996 16 17 17
-4.41709995 4.51734018 -1.63613999 32 37 37
-4.43731022 4.50274992 -1.58323002 67 69 64
-4.43110991 4.50553989 -1.61782002 51 53 51
-4.43319988 4.50089979 -1.60314000 76 79 75
-4.42698002 4.50333977 -1.62866998 46 50 49
-4.42201996 4.52470016 -1.57304001 72 79 81
-4.42114019 4.51856995 -1.64073002 26 28 27
-4.42468023 4.51640987 -1.61287999 57 64 63
-4.44962978 4.52433014 -1.64321005 114 114 105
-4.44491005 4.52207994 -1.64321995 107 107 101
-4.44540024 4.50141001 -1.64841998 43 42 37
-4.43513012 4.49572992 -1.57328999 120 119 107
-4.41739988 4.52091980 -1.64007998 15 19 22
-4.44642019 4.50190020 -1.64839995 77 75 66
-4.43486977 4.49480009 -1.61818004 65 67 60
-4.42583990 4.52381992 -1.57890999 60 64 62
-4.41661978 4.53507996 -1.64302003 29 33 33
-4.42612982 4.52364016 -1.58390999 60 61 57
-4.41966009 4.52697992 -1.59976006 61 69 72
-4.43466997 4.50612020 -1.58907998 72 76 69
-4.42965984 4.49922991 -1.64961004 17 17 14
-4.42130995 4.53020000 -1.57640004 85 92 91
-4.44336987 4.53667021 -1.64279997 124 124 113
-4.43887997 4.53454018 -1.64297998 128 125 111
-4.43409014 4.54189014 -1.64127004 134 136 130
-4.42047024 4.53544998 -1.64207995 31 35 37
-4.42720985 4.53304005 -1.64154005 51 52 48
-4.42288017 4.53097010 -1.64145994 89 93 87
-4.43002987 4.51212978 -1.59166002 68 72 68
-4.42953014 4.52857018 -1.64162004 105 103 87
-4.43038988 4.51201010 -1.59709001 62 65 59
-4.42649984 4.50991011 -1.62156999 41 47 48
-4.42862988 4.50607014 -1.62203002 43 47 47
-4.42943001 4.49470997 -1.64214003 41 48 49
-4.44569016 4.53219986 -1.64287996 120 120 110
-4.44096994 4.52994013 -1.64288998 140 138 125
-4.44778013 4.52759981 -1.64277995 126 126 117
-4.43865013 4.52329016 -1.64340997 130 129 121
-4.43453979 4.52091980 -1.64265001 122 123 113
-4.42990017 4.51874018 -1.64310002 84 86 80
-4.44544983 4.52094984 -1.64330995 129 127 116
-4.43190002 4.51412010 -1.64780998 67 65 51
-4.40978003 4.52448988 -1.56443000 74 75 70
-4.44137001 4.50784016 -1.64810002 102 101 88
-4.43395996 4.49511003 -1.57245004 80 81 77
-4.44424009 4.50121021 -1.64841998 26 24 21
-4.44730997 4.50507021 -1.64776003 74 71 57
-4.41187000 4.51988983 -1.56434000 86 92 94
-4.41513014 4.52990007 -1.56997001 72 74 71
-4.42074013 4.53053999 -1.58922005 52 55 53
-4.44088984 4.54786015 -1.64032996 114 111 101
-4.43651009 4.50487995 -1.65348995 48 48 39
-4.41711998 4.52592993 -1.61107004 60 65 64
-4.42358017 4.52263021 -1.60046005 61 63 60
-4.42837000 4.51383018 -1.61082995 51 57 58
-4.43032980 4.50948000 -1.61483002 59 74 77
-4.43294001 4.50481987 -1.61055005 77 81 78
-4.45395994 4.50944996 -1.64525998 148 147 135
-4.44947004 4.50731993 -1.64543998 128 129 121
-4.41890001 4.52888012 -1.57428002 71 80 83
-4.41411018 4.51534986 -1.56397998 81 88 90
-4.43208981 4.50579977 -1.60575998 86 101 105
-4.41643000 4.51087999 -1.56405997 132 137 132
-4.44987011 4.50072002 -1.64800000 95 95 86
-4.41810989 4.53094006 -1.59256005 61 70 75
-4.41060019 4.52275991 -1.62886000 21 31 36
-4.41860008 4.50636005 -1.56439996 157 160 150
-4.41984987 4.51672983 -1.62459004 48 49 44
-4.42798996 4.51262999 -1.62042999 44 57 62
-4.40685987 4.52027988 -1.63353002 37 37 35
-4.41097021 4.52261019 -1.63839996 18 18 13
-4.44200993 4.54292011 -1.64181995 141 139 125
-4.41505003 4.52460003 -1.64356005 15 16 17
-4.42332983 4.52258015 -1.60142004 61 64 61
-4.43589020 4.54136992 -1.64150000 146 145 135
-4.42286015 4.52237988 -1.60632002 60 60 55
-4.42584991 4.52963018 -1.64184999 73 74 69
-4.43314981 4.51040983 -1.58159995 60 63 59
-4.43273020 4.52734995 -1.64217997 89 90 85
-4.41419983 4.51778984 -1.62811995 53 57 57
-4.42523003 4.51764011 -1.61646998 33 34 32
-4.43539000 4.50591993 -1.58648002 57 60 56
-4.43175983 4.50474024 -1.61691999 53 55 50
-4.44820023 4.50679016 -1.64642000 99 97 85
-4.43010998 4.51747990 -1.57415998 71 74 69
-4.43205976 4.49382019 -1.63681996 43 50 51
-4.43205023 4.49344015 -1.63187003 52 53 48
-4.41655016 4.52530003 -1.64797997 18 19 21
-4.42634010 4.52682018 -1.58771002 58 61 59
-4.43197012 4.51276016 -1.57389998 79 82 77
-4.41306019 4.50923014 -1.56351995 158 157 144
-4.43310022 4.50101995 -1.60086000 63 65 61
-4.42851019 4.51400995 -1.61694002 39 45 44
-4.43314981 4.50072002 -1.60569000 80 83 79
-4.43508005 4.49601984 -1.60062003 59 62 60
-4.43370008 4.50099993 -1.61056995 84 88 82
-4.42838001 4.54189014 -1.64041996 89 90 86
-4.43514013 4.50543022 -1.65090001 66 66 57
-4.43208981 4.51251984 -1.57915998 65 69 67
-4.43197012 4.50158978 -1.56926000 135 137 132
-4.40751982 4.52329016 -1.63682997 17 17 17
-4.41625023 4.48817015 -1.57403004 158 155 141
-4.44056988 4.50851011 -1.64813006 86 85 72
-4.42708015 4.51729012 -1.59546006 63 69 67
-4.43116999 4.53912020 -1.64152002 108 111 106
-4.41943979 4.52775002 -1.57437003 63 72 76
-4.40220022 4.52012014 -1.63777006 18 22 23
-4.41559982 4.52725983 -1.56894004 90 93 89
-4.43072987 4.49991989 -1.62424004 65 69 65
-4.44419003 4.54122019 -1.64240003 165 165 152
-4.43970013 4.53909016 -1.64258003 143 140 123
-4.45352983 4.52202988 -1.64358997 153 153 139
-4.43122005 4.50926018 -1.61082995 86 99 102
-4.44889021 4.51984978 -1.64403999 144 142 128
-4.42256021 4.52501011 -1.57380998 71 79 81
-4.43304014 4.50759983 -1.57270002 106 110 103
-4.44454002 4.51743984 -1.64424002 141 138 122
-4.42435980 4.52059984 -1.56871998 77 84 85
-4.41745996 4.51137018 -1.56403995 101 105 104
-4.43138981 4.50684023 -1.56853998 128 130 125
-4.43264008 4.49489021 -1.62880003 66 71 68
-4.42967987 4.51221991 -1.60904002 86 102 108
-4.43227005 4.50719023 -1.60915995 88 97 99
-4.44399977 4.51856995 -1.64415002 158 154 133
-4.43149996 4.50720978 -1.61430001 56 62 63
-4.42628002 4.51506996 -1.61282003 58 63 61
-4.43352985 4.50292015 -1.60938001 89 93 89
-4.42987013 4.50092983 -1.62468004 52 57 54
-4.45554018 4.51744986 -1.64419997 130 130 121
-4.42499018 4.52479982 -1.57412004 70 77 77
-4.45128012 4.51545000 -1.64454997 145 143 130
-4.41555977 4.49792004 -1.56896996 156 155 143
-4.42385006 4.51870012 -1.64390004 53 55 52
-4.42648983 4.50706005 -1.62542999 48 51 48
-4.42229986 4.51920986 -1.56791997 83 93 96
-4.42709017 4.52158022 -1.58292997 51 53 51
-4.43902016 4.49837017 -1.64838004 18 19 19
-4.42979002 4.51691008 -1.57796001 72 77 75
-4.44115019 4.50710011 -1.64893997 102 100 82
-4.42319012 4.51951981 -1.61264002 45 50 49
-4.43734980 4.52680016 -1.64262998 133 134 123
-4.43134022 4.51246023 -1.58317995 67 71 67
-4.43381023 4.50809002 -1.58823001 69 70 63
-4.42191982 4.49669981 -1.56808996 161 162 152
-4.42125988 4.51356983 -1.64309001 36 40 42
-4.42496014 4.50411987 -1.63321996 30 37 43
-4.43436003 4.49725008 -1.60306001 68 69 66
-4.43381023 4.49743986 -1.61361003 61 63 60
-4.42106009 4.52439022 -1.61202002 25 28 27
-4.44186020 4.53456020 -1.64293003 125 122 108
-4.43592978 4.50383997 -1.58784997 61 62 56
-4.42065001 4.51358986 -1.63338006 47 50 50
-4.42288017 4.50871992 -1.63330996 31 36 37
-4.43924999 4.51065016 -1.64778996 65 61 49
-4.45785999 4.51297998 -1.64426994 146 144 131
-4.43731022 4.53237009 -1.64267004 114 113 103
-4.44949007 4.50191021 -1.64765000 99 97 88
-4.43225002 4.49372005 -1.63429999 41 44 42
-4.42423010 4.53007984 -1.58413994 74 75 70
-4.43273020 4.51178980 -1.57939994 67 72 69
-4.42298985 4.51582003 -1.62031996 47 54 53
-4.42579985 4.50323009 -1.64849997 28 28 27
-4.41825008 4.51612997 -1.63134003 32 34 33
-4.41966009 4.51294994 -1.63113999 26 32 36
-4.42708015 4.49938011 -1.64022005 30 34 34
-4.43790007 4.49557018 -1.65084004 12 12 11
-4.42984009 4.51469994 -1.58536005 75 81 78
-4.43559980 4.50760984 -1.58434999 83 85 81
-4.42740011 4.51112986 -1.61826003 43 51 52
-4.43202019 4.50329018 -1.65154004 24 24 19
-4.43031979 4.50129986 -1.62204003 50 51 46
-4.42705011 4.49952984 -1.64248002 17 22 22
-4.41753006 4.51728010 -1.63265002 25 28 28
-4.42436981 4.50312996 -1.64236999 23 32 36
-4.42244005 4.50778008 -1.64219999 35 35 34
-4.41689014 4.52864981 -1.59768999 52 52 50
-4.41754007 4.52789021 -1.60203004 47 52 55
-4.40452003 4.52193022 -1.63321996 25 28 27
-4.40782022 4.52447987 -1.64137995 5 5 6
-4.41804981 4.51774979 -1.62633002 37 40 38
-4.42891979 4.51117992 -1.56760001 107 113 111
-4.42418003 4.50371981 -1.63751996 22 29 34
-4.42411995 4.49772978 -1.56778002 144 146 142
-4.41731977 4.52815008 -1.60681999 59 61 58
-4.41764021 4.51765013 -1.63690996 31 37 40
-4.42198992 4.50791979 -1.64681005 10 10 10
-4.42851019 4.49562979 -1.64626002 20 22 20
-4.43378019 4.49811983 -1.60439003 69 71 67
-4.42228985 4.52367020 -1.61784995 17 17 16
-4.42595005 4.50432014 -1.64806998 23 23 21
-4.44085979 4.54511976 -1.64121997 176 174 160
-4.42193985 4.52469015 -1.59653997 77 87 89
-4.42775011 4.52171993 -1.57139003 91 98 95
-4.43657017 4.50402021 -1.58156002 59 63 60
-4.42886019 4.51103020 -1.61688995 31 40 44
-4.42213011 4.51345015 -1.62677002 14 16 19
-4.42729998 4.51603985 -1.64691997 54 54 48
-4.43691015 4.50357008 -1.64747000 36 36 31
-4.40699005 4.52436018 -1.56195998 112 113 105
-4.41178989 4.52664995 -1.56649005 139 138 125
-4.41389990 4.52238989 -1.56611001 98 102 102
-4.42270994 4.51547003 -1.56660998 94 101 103
-4.41780996 4.50160980 -1.56664002 147 145 134
-4.43199015 4.50874996 -1.57156003 96 100 94
-4.42468977 4.49934006 -1.56696999 134 137 134
-4.41796017 4.49059010 -1.57221997 166 165 150
-4.42732000 4.51786995 -1.60170996 53 54 50
-4.41744995 4.52359009 -1.64741004 16 16 16
-4.41159010 4.53067017 -1.61171997 49 59 65
-4.41129017 4.52948999 -1.61652005 47 55 58
-4.41690016 4.52861977 -1.61115003 65 75 76
-4.41261005 4.52631998 -1.61702001 53 64 66
-4.42398024 4.52185011 -1.64315999 42 45 45
-4.42884016 4.50051022 -1.64864004 22 21 19
-4.42013979 4.50147009 -1.64242995 50 51 50
-4.42187977 4.52161980 -1.61641002 45 50 52
-4.43632984 4.49715996 -1.58929002 76 76 67
-4.42444992 4.50897980 -1.62685001 43 44 43
-4.42518997 4.52075005 -1.59317994 61 63 59
-4.42877007 4.49991989 -1.56733000 139 141 138
-4.41879988 4.53137016 -1.57550001 75 84 86
-4.43615007 4.51227999 -1.64737999 79 76 65
-4.43778992 4.49713993 -1.64924002 17 17 13
-4.40676022 4.52903986 -1.61143005 64 75 79
-4.40893984 4.52395010 -1.62735999 37 50 58
-4.43017006 4.51766014 -1.57161999 74 77 73
-4.42709017 4.53853989 -1.64116001 96 96 90
-4.43628979 4.50517988 -1.65417004 53 53 43
-4.40757990 4.51809978 -1.63238001 45 45 43
-4.41764021 4.52784014 -1.64693999 17 21 23
-4.40992022 4.52171993 -1.56392002 88 96 98
-4.42770004 4.51376009 -1.61415005 44 52 53
-4.42309999 4.51131010 -1.62466002 40 45 47
-4.42312002 4.51847982 -1.63629997 33 41 46
-4.42888021 4.50029993 -1.63179004 49 55 54
-4.42990017 4.49784994 -1.63450003 45 48 45
-4.41708994 4.53042984 -1.57388997 80 91 94
-4.42120981 4.52155018 -1.56887996 81 91 95
-4.42389011 4.52814007 -1.57902002 62 68 67
-4.43289995 4.50215006 -1.60321999 96 100 96
-4.41723013 4.48892021 -1.57328999 167 165 150
-4.42757988 4.51635981 -1.60303998 78 80 73
-4.44011021 4.54063988 -1.64204001 125 121 104
-4.42385006 4.51574993 -1.61859000 38 42 41
-4.42785978 4.51914978 -1.56903994 103 105 103
-4.42159986 4.53875017 -1.64160001 70 76 78
-4.41260004 4.53415012 -1.64224994 40 42 40
-4.41943979 4.53214979 -1.64186001 41 42 39
-4.42081022 4.52966022 -1.64179003 62 61 53
-4.44169998 4.49815989 -1.65183997 29 29 26
-4.43354988 4.54302979 -1.64119005 115 117 113
-4.42493010 4.51788998 -1.64476001 51 51 45
-4.41545010 4.53446007 -1.64216995 38 43 42
-4.42270994 4.50721979 -1.64224005 20 23 25
-4.43158007 4.49901009 -1.62081003 57 61 59
-4.40907001 4.52265978 -1.56324005 86 90 88
-4.42106009 4.52338982 -1.60807002 60 69 70
-4.43555021 4.53844023 -1.64179003 121 122 111
-4.42211008 4.51211977 -1.63244998 42 48 50
-4.43472004 4.51702023 -1.64528000 77 74 63
-4.43073988 4.51590014 -1.64636004 98 98 84
-4.43123007 4.53636980 -1.64171004 108 110 105
-4.42398024 4.50488997 -1.63577998 24 29 32
-4.43254995 4.51045990 -1.65077996 70 66 52
-4.45485020 4.51022005 -1.64522004 158 157 143
-4.42898989 4.52970982 -1.64153004 124 122 104
-4.41138983 4.52308989 -1.63277996 10 10 12
-4.43339014 4.53183985 -1.64205003 100 102 95
-4.42418003 4.52746010 -1.64224005 65 65 58
-4.43462992 4.50585985 -1.59048998 67 67 56
-4.43414021 4.50138998 -1.59447002 62 62 56
-4.42930984 4.51283979 -1.60557997 70 75 75
-4.42874002 4.51510000 -1.58366001 66 67 58
-4.41419983 4.52506018 -1.56724000 81 83 81
-4.41124010 4.51813984 -1.56358004 110 113 112
-4.41874981 4.52729988 -1.57272995 64 71 74
-4.42964983 4.50898981 -1.61730003 61 64 63
-4.42589998 4.50655985 -1.62721002 48 51 50
-4.42524004 4.50257015 -1.63865995 21 27 31
-4.43075991 4.52500010 -1.64197004 81 83 81
-4.41372013 4.51372004 -1.56339002 73 80 84
-4.42202997 4.51350021 -1.62336004 42 50 53
-4.43133020 4.51449013 -1.64716995 64 63 54
-4.42604017 4.52369022 -1.58050001 68 73 73
-4.41885996 4.51552010 -1.62860000 32 36 35
-4.42528009 4.51393986 -1.61794996 42 44 44
-4.42947006 4.51293993 -1.61056006 80 92 98
-4.42896986 4.51430988 -1.59036005 67 72 69
-4.41731977 4.52863979 -1.60879004 34 35 36
-4.42349005 4.52022982 -1.64326000 37 40 39
-4.44421005 4.50909996 -1.64673996 98 97 85
-4.43283987 4.50929022 -1.65182996 67 66 54
-4.42517996 4.51885986 -1.61445999 29 31 26
-4.43878984 4.49823999 -1.64821994 24 25 21
-4.42643976 4.50930977 -1.62327003 52 64 72
-4.42844009 4.49601984 -1.64257002 36 48 52
-4.43218994 4.50571012 -1.60393000 73 86 90
-4.42561007 4.51108980 -1.62426996 55 68 73
-4.45799017 4.50446987 -1.64627004 141 142 130
-4.42459011 4.52076006 -1.61563003 42 45 45
-4.42292976 4.51807022 -1.56730998 96 104 106
-4.42554998 4.52500010 -1.57787001 53 57 56
-4.42508984 4.52856016 -1.58171999 79 82 78
-4.41788006 4.52739000 -1.60250998 48 55 59
-4.41777992 4.52702999 -1.60759997 52 52 49
-4.42925978 4.51556015 -1.56799996 100 112 117
-4.41716003 4.52810001 -1.62577999 47 50 49
-4.41346979 4.52580023 -1.61854994 46 50 48
-4.41405010 4.52110004 -1.63584006 15 18 20
-4.41232014 4.52992010 -1.64340997 27 32 36
-4.40508986 4.52114010 -1.63302004 34 34 34
-4.41376019 4.53192997 -1.60546005 53 65 71
-4.41129017 4.52948999 -1.61652005 47 55 58
-4.41643000 4.52836990 -1.61081004 64 74 75
-4.41839981 4.51667976 -1.63304996 33 33 34
-4.40708017 4.52336979 -1.62686002 54 63 67
-4.41047001 4.51867008 -1.64023995 22 31 36
-4.43375015 4.49636984 -1.65073001 13 14 16
-4.42222977 4.50705004 -1.64303005 16 18 18
-4.42480993 4.50303984 -1.64298999 19 26 29
-4.43224001 4.50156021 -1.61802006 49 49 44
-4.43393993 4.50687981 -1.57607996 88 92 89
-4.41452980 4.52030993 -1.62698996 37 48 54
-4.42779016 4.52051020 -1.58274996 43 44 40
-4.43189001 4.51124001 -1.57279003 74 76 71
-4.42181015 4.52880001 -1.57790005 80 90 91
-4.43063021 4.54024982 -1.64143002 100 101 95
-4.42391014 4.53145981 -1.64144003 79 84 82
-4.43338013 4.49651003 -1.57165003 107 107 104
-4.43254995 4.52447987 -1.64219999 104 105 99
-4.41168022 4.51760006 -1.62766004 45 46 41
-4.43161011 4.50996017 -1.58991003 64 65 60
-4.43549013 4.51600981 -1.64554000 77 76 64
-4.42361021 4.51857996 -1.64373004 47 49 46
-4.42907000 4.49968004 -1.65008998 26 26 21
-4.42957020 4.51185989 -1.61413002 60 68 69
-4.42111015 4.53133011 -1.58811998 70 76 78
-4.41984987 4.52252007 -1.61798000 31 33 33
-4.44223022 4.51359987 -1.64499998 99 96 80
-4.43332005 4.50945997 -1.65103996 71 67 56
-4.41685009 4.52018976 -1.63847005 15 19 20
-4.41825008 4.52629995 -1.62267995 46 47 42
-4.43569994 4.50218010 -1.57651997 58 64 66
-4.44137001 4.50345993 -1.65014994 64 64 52
-4.42772007 4.51508999 -1.60845995 63 68 66
-4.42945004 4.51300001 -1.59299004 74 77 72
-4.42804003 4.50652981 -1.62251997 49 53 52
-4.42966986 4.50209999 -1.62293005 45 49 46
-4.39721012 4.52567005 -1.63181996 36 46 53
-4.41243982 4.53117990 -1.61310005 48 58 63
-4.42930984 4.49585009 -1.57016003 138 138 129
-4.43247986 4.50307989 -1.60429001 94 101 99
-4.41303015 4.52443981 -1.56639004 77 79 77
-4.43281984 4.50213003 -1.60802996 86 89 85
-4.42015982 4.48922014 -1.57252002 163 162 147
-4.40543985 4.52687979 -1.62362003 44 55 58
-4.41731977 4.52282000 -1.61951005 59 66 66
-4.41522980 4.51580000 -1.62757003 47 56 60
-4.43403006 4.49863005 -1.60950994 66 67 60
-4.43826008 4.49782991 -1.57676995 117 118 111
-4.43194008 4.50472021 -1.61553001 76 83 82
-4.43115997 4.49505997 -1.57111001 158 157 144
-4.43837023 4.50059986 -1.58042002 91 92 85
-4.41674995 4.52027988 -1.64030004 14 19 21
-4.45561981 4.50921011 -1.64547002 157 155 142
-4.43110991 4.49923992 -1.64525998 11 13 11
-4.43794012 4.50839996 -1.64951003 64 62 52
-4.42761993 4.52049017 -1.58825004 56 61 59
-4.43342018 4.50641012 -1.57305002 91 94 87
-4.43084002 4.50027990 -1.56829000 145 146 141
-4.42671013 4.49757004 -1.56781995 142 143 140
-4.42228985 4.49551010 -1.56842995 141 141 132
-4.43628979 4.50222015 -1.57800996 54 58 58
-4.43442011 4.50856018 -1.65076005 130 119 90
-4.43830013 4.50100994 -1.65561998 44 43 38
-4.42928982 4.51687002 -1.64532006 91 91 82
-4.43825006 4.49791002 -1.57790005 108 109 100
-4.43476009 4.50028992 -1.64995003 25 27 26
-4.42849016 4.49473000 -1.56979001 146 146 137
-4.43116999 4.50812006 -1.61467004 58 66 66
-4.41129017 4.52948999 -1.61652005 47 55 58
-4.41842985 4.52721977 -1.61064994 62 74 75
-4.43741989 4.50162983 -1.58156002 79 83 82
-4.42951012 4.49816990 -1.63656998 46 51 50
-4.43158007 4.50965977 -1.59543002 52 52 44
-4.40930986 4.52234983 -1.63621998 24 24 21
-4.42033005 4.52223015 -1.61110997 58 68 67
-4.42275000 4.51812983 -1.61544001 62 68 68
-4.42448997 4.51407003 -1.62011003 49 57 63
-4.43375015 4.49636984 -1.65073001 12 13 15
-4.40550995 4.52500010 -1.56120002 123 126 121
-4.40735006 4.52035999 -1.56207001 96 99 97
-4.41864014 4.52018023 -1.56702006 90 96 97
-4.42018986 4.53219986 -1.57764995 82 90 90
-4.41439009 4.52933979 -1.60415995 47 47 47
-4.42392015 4.53427982 -1.64168000 68 71 69
-4.42158985 4.52864981 -1.64204001 63 63 54
-4.43119001 4.50994015 -1.65245998 57 58 52
-4.43202019 4.50329018 -1.65154004 25 24 19
-4.42107010 4.51603985 -1.56612003 105 111 111
-4.41671991 4.52529001 -1.61442995 55 65 66
-4.40604019 4.52491999 -1.64002001 10 10 10
-4.42769003 4.51329994 -1.56656003 125 127 125
-4.41625023 4.50226021 -1.56658006 140 138 128
-4.41433001 4.51801014 -1.63011003 35 39 37
-4.42161989 4.51534986 -1.64593995 32 33 31
-4.46012020 4.50543022 -1.64552999 130 129 117
-4.41403008 4.52941990 -1.61219001 46 51 53
-4.42009020 4.52692986 -1.59626997 57 59 57
-4.41261005 4.52298021 -1.63760996 63 64 57
-4.40743017 4.52044010 -1.63204002 33 35 36
-4.42320013 4.51076984 -1.62609994 41 48 44
-4.42476988 4.53188992 -1.64168000 64 69 66
-4.41842985 4.53105021 -1.59203994 60 66 69
-4.39530993 4.52533007 -1.63469994 34 42 46
-4.42998981 4.51723003 -1.57628000 71 72 64
-4.42055988 4.50151014 -1.56641996 143 144 138
-4.41260004 4.52347994 -1.63958001 21 23 22
-4.43201017 4.51297998 -1.57659996 75 77 73
-4.44228983 4.53892994 -1.64262998 127 125 114
-4.43796015 4.53685999 -1.64253998 146 143 127
-4.42753983 4.50203991 -1.56630003 137 140 138
-4.42276001 4.50014019 -1.56672001 142 145 141
-4.43405008 4.49996996 -1.57167006 112 117 115
-4.41870022 4.50483990 -1.64077997 52 53 48
-4.41639996 4.49123001 -1.57216001 149 148 135
-4.43028021 4.49720001 -1.64207006 14 14 14
-4.41729021 4.52737999 -1.64776003 18 22 23
-4.41307020 4.53098011 -1.60185003 57 65 68
-4.43357992 4.50409985 -1.61079001 88 93 90
-4.43603992 4.50511980 -1.58557999 70 71 63
-4.42363024 4.51026011 -1.62586999 37 42 41
-4.42847013 4.51422977 -1.60162997 60 60 51
-4.43276978 4.50335979 -1.61537004 76 85 83
-4.42992020 4.49828005 -1.64470005 11 13 13
-4.41418982 4.52708006 -1.61252999 48 48 46
-4.41780996 4.52778006 -1.59880996 61 63 62
-4.42512989 4.49246979 -1.57025003 146 147 138
-4.41705990 4.53643990 -1.64433002 9 11 13
-4.41779995 4.52111006 -1.63998997 16 20 23
-4.40183020 4.52027988 -1.63758004 21 29 32
-4.42440987 4.52035999 -1.60683000 65 71 70
-4.42252016 4.51366997 -1.62257004 38 43 43
-4.41288996 4.51844978 -1.63119996 42 43 37
-4.42218018 4.52236986 -1.64292002 9 14 21
-4.42911005 4.50623989 -1.62124002 37 38 35
-4.41870022 4.50483990 -1.64077997 52 52 48
-4.42806005 4.51364994 -1.61958003 37 48 52
-4.43023014 4.49842978 -1.64941001 10 10 9
-4.42282009 4.52114010 -1.62249005 19 19 19
-4.42494011 4.52362013 -1.57271004 101 108 109
-4.44474983 4.53418016 -1.64273000 99 99 90
-4.40136003 4.52391005 -1.63320994 31 32 32
-4.41259003 4.52355003 -1.62202001 57 68 69
-4.40314007 4.51958990 -1.63859999 27 35 42
-4.41675997 4.51440001 -1.62707996 49 58 63
-4.44013023 4.53233004 -1.64288998 126 124 109
-4.41751003 4.50334978 -1.64235997 51 52 47
-4.44353008 4.50475979 -1.64912999 83 80 63
-4.41138983 4.52308989 -1.63277996 10 10 11
-4.43549013 4.53006983 -1.64219999 101 100 91
-4.43933010 4.50001001 -1.64967000 66 64 52
-4.41697979 4.52621984 -1.56955004 72 75 75
-4.44360018 4.50242996 -1.65016997 61 58 46
-4.43009996 4.49483013 -1.64407003 27 39 42
-4.43346024 4.50285006 -1.59959996 58 61 58
-4.40506983 4.52461004 -1.62813997 47 59 64
-4.40942001 4.51689005 -1.63249004 36 36 36
-4.41717005 4.52518988 -1.64721000 16 18 19
-4.42170000 4.51202011 -1.63367999 45 47 47
-4.41514015 4.52942991 -1.64689004 18 21 22
-4.42596006 4.52655983 -1.58667004 64 63 57
-4.44677019 4.52993011 -1.64304996 130 129 118
-4.42845011 4.52116013 -1.64274001 53 54 49
-4.42501020 4.50724983 -1.64663005 54 54 49
-4.40958977 4.52364016 -1.62844002 30 40 44
-4.42162991 4.49596024 -1.64327002 62 62 59
-4.42594004 4.51698017 -1.60778999 66 70 66
-4.42348003 4.50966978 -1.62827003 39 47 50
-4.42689991 4.50620985 -1.62549996 56 63 64
-4.43007994 4.49684000 -1.63850999 27 32 34
-4.42166996 4.51217985 -1.63593996 35 40 43
-4.42632008 4.50319004 -1.63085997 38 43 45
-4.42873001 4.49917984 -1.63631999 46 56 59
-4.43030024 4.49464989 -1.64040995 39 39 39
-4.40923977 4.52320004 -1.63859999 17 18 16
-4.41425991 4.51695013 -1.62573004 46 54 55
-4.41775990 4.52707005 -1.57133996 60 65 67
-4.41406012 4.49288988 -1.57184005 139 138 127
-4.42062998 4.49041986 -1.57157004 147 147 136
-4.43158007 4.51788998 -1.64431000 100 99 90
-4.42042017 4.52704000 -1.59574997 64 64 60
-4.42369986 4.52438021 -1.57211995 67 74 75
-4.41220999 4.51796007 -1.63366997 36 36 33
-4.42159986 4.51738977 -1.56673002 96 103 104
-4.43179989 4.50739002 -1.60555005 84 98 103
-4.43496990 4.49908018 -1.59560001 83 84 78
-4.45008993 4.50625992 -1.64595997 127 128 121
-4.43199015 4.50733995 -1.60827005 95 102 102
-4.42570019 4.52125978 -1.64295995 52 54 52
-4.41643000 4.52448988 -1.61484003 51 57 55
-4.40708017 4.52093983 -1.63156998 33 38 42
-4.42936993 4.51153994 -1.61581004 34 40 41
-4.43036985 4.50105000 -1.65079999 26 26 19
-4.42180014 4.53129005 -1.58778000 84 84 82
-4.43666983 4.50103998 -1.58771002 58 59 55
-4.43504000 4.49481010 -1.60333002 80 83 76
-4.43480015 4.49473000 -1.60839999 67 68 64
-4.43472004 4.49469995 -1.61319995 45 47 43
-4.43696022 4.50524998 -1.65085006 57 58 46
-4.44909000 4.52545977 -1.64312005 110 110 103
-4.44436979 4.52321005 -1.64313996 115 115 108
-4.42333984 4.50752020 -1.63295996 39 44 44
-4.43988991 4.52108002 -1.64331996 106 108 103
-4.43416977 4.49588013 -1.61836004 68 71 67
-4.45195007 4.52233982 -1.64381003 149 148 135
-4.42660999 4.51514006 -1.64855003 40 41 37
-4.44259977 4.51823997 -1.64398003 135 131 113
-4.43302011 4.51260996 -1.64854002 71 73 68
-4.46100998 4.50619984 -1.64548004 134 133 121
-4.41875982 4.52723980 -1.59964001 53 56 57
-4.43966007 4.50979996 -1.64786005 57 54 43
-4.40596008 4.52442980 -1.63873994 11 11 12
-4.44671011 4.53268003 -1.64285004 122 122 114
-4.45396996 4.51808977 -1.64412999 126 124 117
-4.42252016 4.50833988 -1.63525999 36 43 45
-4.42809010 4.51492977 -1.56715000 122 125 123
-4.41061020 4.52512980 -1.63237000 25 27 26
-4.42825985 4.50378990 -1.56636000 145 147 143
-4.42864990 4.51561022 -1.58633006 76 80 75
-4.43526983 4.50513983 -1.65092003 63 63 53
-4.43797016 4.50048018 -1.65530002 34 34 29
-4.43244982 4.50611019 -1.57053006 116 117 110
-4.42272997 4.50714016 -1.64110994 25 30 30
-4.42320013 4.52092981 -1.60809004 62 67 63
-4.44932985 4.51591015 -1.64458001 140 137 125
-4.41061020 4.52512980 -1.63237000 24 27 25
-4.44467020 4.49776983 -1.65093994 46 46 38
-4.41286993 4.52487993 -1.61948001 59 69 71
-4.41771984 4.50073004 -1.64341998 46 46 45
-4.42234993 4.50832987 -1.64075994 39 40 39
-4.41941977 4.52542019 -1.60825002 57 63 62
-4.44238997 4.53061008 -1.64277005 129 127 114
-4.44907999 4.50275993 -1.64759004 130 128 116
-4.43790007 4.52848005 -1.64295006 133 134 126
-4.44301987 4.49746990 -1.65286005 40 38 26
-4.41614008 4.52613020 -1.56902003 87 92 92
-4.41770983 4.52787018 -1.60064006 49 52 53
-4.41063023 4.53130007 -1.64005995 31 35 36
-4.43667984 4.50389004 -1.58384001 61 63 58
-4.40911007 4.52398014 -1.64056003 11 15 17
-4.41804981 4.51774979 -1.62633002 37 40 38
-4.42250013 4.50843000 -1.64573002 25 27 28
-4.43410015 4.49722004 -1.57186997 92 93 92
-4.41279984 4.50103998 -1.56757998 190 189 168
-4.42396021 4.53065014 -1.58408999 82 83 79
-4.42633009 4.51526022 -1.61961997 48 58 61
-4.41518021 4.49911022 -1.56861997 140 139 129
-4.41349983 4.50235987 -1.56680000 176 179 166
-4.42643023 4.51562977 -1.61452997 53 61 62
-4.43941021 4.53059006 -1.64282000 141 138 125
-4.43873978 4.49948978 -1.58190000 107 107 95
-4.43139982 4.50580978 -1.56869996 134 136 131
-4.43500996 4.52845001 -1.64231002 109 109 99
-4.43163013 4.50984001 -1.59289002 70 72 62
-4.42660999 4.51703978 -1.64596999 55 54 48
-4.42601013 4.52384996 -1.64295006 40 41 40
-4.44173002 4.52612019 -1.64289999 135 135 127
-4.43066978 4.49692011 -1.63589001 37 43 43
-4.43386984 4.49469995 -1.62314999 57 58 53
-4.41961002 4.52824020 -1.59363997 55 56 52
-4.42602015 4.52671003 -1.58824003 55 62 62
-4.42740011 4.51496983 -1.60898995 54 58 56
-4.41425991 4.51695013 -1.62573004 47 55 56
-4.41319990 4.53123999 -1.60907996 45 47 47
-4.42015982 4.49455023 -1.56917000 147 147 134
-4.41806984 4.52340984 -1.61336005 54 55 48
-4.40642977 4.52365017 -1.63924003 33 34 34
-4.41553020 4.52189016 -1.61859000 55 55 50
-4.41444016 4.51838017 -1.63436997 15 16 17
-4.43243980 4.50620985 -1.60905004 85 92 91
-4.43204021 4.50608015 -1.61439002 58 60 59
-4.44221020 4.49961996 -1.64946997 19 20 19
-4.42834997 4.52019978 -1.57518005 75 78 75
-4.41154003 4.52466011 -1.62498999 37 38 40
-4.41790009 4.52245998 -1.63884997 17 19 22
-4.41969013 4.51809978 -1.63900006 22 30 34
-4.41470003 4.53191996 -1.59481001 57 65 70
-4.41988993 4.52376986 -1.61117005 57 66 68
-4.43196011 4.50698996 -1.59921002 56 60 55
-4.43099022 4.49559021 -1.63468003 51 57 56
-4.41365004 4.52574015 -1.62126994 22 25 25
-4.42851019 4.49562979 -1.64626002 20 22 21
-4.42878008 4.49985981 -1.64510000 16 17 20
-4.41728020 4.52841997 -1.60609996 60 62 60
-4.43442011 4.50856018 -1.65076005 128 118 89
-4.43382978 4.50263977 -1.59455001 70 72 65
-4.42246008 4.50865984 -1.63978004 27 30 30
-4.42261982 4.53922987 -1.64157999 101 107 105
-4.42258978 4.50841999 -1.64504004 26 27 29
-4.42136002 4.51199007 -1.64469004 37 41 40
-4.45613003 4.51356983 -1.64447999 157 154 141
-4.43076992 4.51235008 -1.65009999 48 48 40
-4.42151022 4.51260996 -1.62882996 41 53 61
-4.42292976 4.53069019 -1.58197999 97 98 96
-4.41056013 4.52344990 -1.62899005 27 33 36
-4.41779995 4.52111006 -1.63998997 15 19 22
-4.42317009 4.53077984 -1.58625996 73 79 84
-4.43959999 4.54450989 -1.64107001 172 171 160
-4.43580008 4.49487019 -1.65015996 12 13 10
-4.42150021 4.53594017 -1.64206004 43 50 56
-4.41302013 4.52114010 -1.63372004 17 20 22
-4.43346977 4.50808001 -1.57642996 69 71 68
-4.41765022 4.52922010 -1.61434996 25 24 24
-4.41974020 4.51492023 -1.62899995 32 36 37
-4.42218018 4.51124001 -1.63417995 37 39 40
-4.42876005 4.50871992 -1.61932003 41 47 48
-4.42889977 4.49774981 -1.63947999 37 46 49
-4.43553019 4.50314999 -1.57663000 54 59 60
-4.42304993 4.50868988 -1.63191998 40 46 47
-4.42362022 4.51996994 -1.62047994 25 29 33
-4.41801023 4.52763987 -1.60038996 51 55 55
-4.42266989 4.50745010 -1.64563000 14 15 15
-4.41864014 4.52791977 -1.61391997 50 50 50
-4.40543985 4.52687979 -1.62362003 44 55 58
-4.41517019 4.52776003 -1.61065996 64 74 76
-4.41731977 4.52282000 -1.61951005 59 66 66
-4.41579008 4.51554012 -1.62523997 49 59 60
-4.42181015 4.51379013 -1.62402999 47 57 63
-4.43589020 4.50991011 -1.65007997 105 100 79
-4.40788984 4.52119017 -1.63435996 21 22 20
-4.43322992 4.51240015 -1.64900005 41 41 33
-4.43202019 4.50329018 -1.65154004 25 24 19
-4.41797018 4.53319979 -1.64194000 47 48 47
-4.42251015 4.49193001 -1.64444005 62 62 59
-4.44448996 4.52883005 -1.64292002 145 144 131
-4.41177988 4.52519989 -1.56579995 114 113 102
-4.41413021 4.52107000 -1.56559002 87 93 96
-4.41918993 4.52381992 -1.57000995 75 83 87
-4.41654015 4.51659012 -1.56497002 114 117 114
-4.43472004 4.51073980 -1.64991999 167 150 116
-4.42546988 4.52158022 -1.56998003 101 106 104
-4.43095016 4.49677992 -1.64611995 17 17 15
-4.42532015 4.50931978 -1.56576002 108 112 113
-4.42726994 4.50501013 -1.56564999 141 143 138
-4.42294979 4.50294018 -1.56557000 128 128 122
-4.43206978 4.50728989 -1.57018006 113 113 105
-4.42616987 4.52100992 -1.59046996 61 63 59
-4.42832994 4.51643991 -1.58556998 72 74 67
-4.41612005 4.49378014 -1.57066000 146 146 134
-4.42566013 4.52150011 -1.59549999 62 64 58
-4.42913008 4.51198006 -1.65090001 50 51 47
-4.41296005 4.52050018 -1.63019001 26 39 48
-4.42312002 4.51847982 -1.63629997 33 41 46
-4.42117023 4.53487015 -1.59302998 79 79 74
-4.42279005 4.49172020 -1.57053995 146 145 132
-4.43687010 4.49844980 -1.57530999 126 129 124
-4.42455006 4.52000999 -1.61506999 40 44 45
-4.43064022 4.50578022 -1.65161002 57 55 45
-4.42307997 4.52207994 -1.60564995 65 68 64
-4.43561983 4.50364017 -1.57790005 51 54 53
-4.41429996 4.51626015 -1.63495004 44 44 40
-4.40622997 4.52287006 -1.63483000 16 16 15
-4.41044998 4.52458000 -1.64001000 24 25 27
-4.41785002 4.52372980 -1.64207995 47 48 47
-4.43064022 4.50819016 -1.56799996 129 132 128
-4.43605995 4.49771976 -1.58923995 82 82 72
-4.43048000 4.51488018 -1.57906997 77 82 79
-4.42686987 4.50492001 -1.62706995 55 55 53
-4.43545008 4.49779987 -1.59412003 89 91 88
-4.42092991 4.52314997 -1.61952996 23 23 21
-4.43031979 4.49357986 -1.64468002 26 37 42
-4.42612982 4.51350021 -1.62061000 33 43 48
-4.42213011 4.51200008 -1.62608004 37 45 48
-4.42561007 4.50286007 -1.63558996 30 35 38
-4.43803978 4.50298023 -1.65102005 37 37 29
-4.43108988 4.52792978 -1.64168000 87 85 76
-4.43077993 4.50447989 -1.61963999 54 55 50
-4.42639017 4.52265978 -1.58310997 58 60 57
-4.43361998 4.49560022 -1.57196999 99 100 97
-4.42857981 4.51843023 -1.57791996 73 77 74
-4.41965008 4.52511978 -1.60757995 55 59 58
-4.43590021 4.50348997 -1.57878995 39 40 41
-4.43093014 4.51429987 -1.57772005 85 90 86
-4.43153000 4.50167990 -1.61949003 47 49 46
-4.43664980 4.52787018 -1.64279997 124 126 119
-4.42473984 4.51652002 -1.61854994 28 29 28
-4.43319988 4.50915003 -1.58771002 67 69 65
-4.44329023 4.52546978 -1.64295995 133 134 125
-4.42158985 4.51410007 -1.64340997 37 38 38
-4.43159008 4.50331020 -1.61763000 59 60 54
-4.43301010 4.49766016 -1.61690998 63 64 59
-4.42466021 4.50538015 -1.63329995 33 42 46
-4.43356991 4.49835014 -1.61328006 58 59 53
-4.42757988 4.50087023 -1.63373995 48 51 50
-4.43179989 4.50598001 -1.65161002 67 68 51
-4.42481995 4.51803017 -1.61031997 65 71 69
-4.42663002 4.50190020 -1.63487995 31 39 43
-4.44920015 4.52826977 -1.64267004 124 126 118
-4.43550014 4.52175999 -1.64303994 126 127 119
-4.43101978 4.51962996 -1.64321995 84 85 79
-4.41942978 4.50404978 -1.56552994 158 157 147
-4.44953012 4.52152014 -1.64366996 139 138 125
-4.42598009 4.51724005 -1.60636997 72 72 65
-4.41825008 4.51612997 -1.63134003 32 34 33
-4.42238998 4.52792978 -1.57657003 85 94 94
-4.42280006 4.50675011 -1.63546002 35 43 45
-4.42364979 4.53972006 -1.64155996 116 116 108
-4.42187977 4.53329992 -1.64172006 37 42 42
-4.43076992 4.49822998 -1.56930995 148 148 139
-4.43621016 4.50512981 -1.58008003 58 59 58
-4.42804003 4.51667976 -1.64601004 72 71 63
-4.44006014 4.52396011 -1.64329004 120 121 113
-4.42926979 4.51454020 -1.58685005 59 60 55
-4.43155003 4.49628019 -1.63104999 57 61 57
-4.41914988 4.53767014 -1.64286995 30 35 37
-4.42065001 4.52375984 -1.62471998 25 28 30
-4.44152021 4.51227999 -1.64578998 99 98 84
-4.41716003 4.52810001 -1.62577999 48 49 49
-4.41801977 4.52859020 -1.64060998 6 6 4
-4.41403008 4.51973009 -1.63627994 22 24 25
-4.43335009 4.50488997 -1.57193005 115 115 106
-4.41129017 4.52948999 -1.61652005 47 55 58
-4.41690016 4.52861977 -1.61115003 65 75 76
-4.42193985 4.51983023 -1.61530995 57 66 65
-4.41047001 4.51867008 -1.64023995 22 31 36
-4.43375015 4.49636984 -1.65073001 13 14 16
-4.45274019 4.51199007 -1.64506996 161 159 147
-4.44810009 4.50980997 -1.64550996 116 115 103
-4.42473984 4.50248003 -1.64058006 18 24 27
-4.43566990 4.50625992 -1.57999003 62 64 61
-4.41505003 4.53572989 -1.64295995 53 54 53
-4.43156004 4.50973988 -1.59656000 51 52 44
-4.43367004 4.50551987 -1.59208000 59 63 59
-4.40744019 4.52279997 -1.63555002 16 16 15
-4.40676022 4.52903986 -1.61143005 64 75 79
-4.41078997 4.52360010 -1.56484997 71 77 79
-4.45944977 4.50925016 -1.64481997 142 139 125
-4.42760992 4.50798988 -1.62144995 44 50 47
-4.42312002 4.51847982 -1.63629997 33 41 46
-4.41855001 4.52750015 -1.64593005 15 19 22
-4.45497990 4.50754023 -1.64584005 132 129 115
-4.42193985 4.51114988 -1.62989998 44 54 59
-4.42136002 4.53233004 -1.58587003 66 67 64
-4.42396021 4.52238989 -1.59951997 55 57 53
-4.43259001 4.50484991 -1.59464002 59 61 56
-4.43089008 4.50967979 -1.60923004 88 104 110
-4.39721012 4.52567005 -1.63181996 36 46 54
-4.43396997 4.49560022 -1.61592996 57 59 56
-4.43659019 4.50394011 -1.58043003 54 55 53
-4.41754007 4.52542019 -1.56935000 67 72 73
-4.42679977 4.51884985 -1.59937000 62 64 59
-4.43146992 4.51024008 -1.58989000 72 74 71
-4.43159008 4.50958014 -1.59430003 57 57 48
-4.43490982 4.51740980 -1.64472997 63 60 51
-4.43790007 4.49646997 -1.58411002 67 66 53
-4.42755985 4.49860001 -1.64071000 31 36 35
-4.42593002 4.52476978 -1.58626997 67 68 62
-4.42126989 4.52313995 -1.61263001 31 38 37
-4.42160988 4.51251984 -1.62699997 41 48 52
-4.40676022 4.52375984 -1.63871002 24 25 25
-4.43466997 4.49740982 -1.60776997 64 65 59
-4.42350006 4.53084993 -1.58048999 58 60 60
-4.42440987 4.52567005 -1.57544994 61 67 65
-4.42908001 4.51702976 -1.57008004 67 69 67
-4.42078018 4.52448988 -1.60589004 62 66 64
-4.42292023 4.51958990 -1.61062002 56 58 56
-4.43104982 4.51214981 -1.58554995 58 62 58
-4.43332005 4.50799990 -1.59015000 64 65 59
-4.42141008 4.51316977 -1.64609003 35 40 41
-4.42329979 4.50873995 -1.63095999 47 53 56
-4.42532015 4.50449991 -1.63127995 37 40 40
-4.43380022 4.49653006 -1.62013996 55 57 55
-4.42859983 4.51398993 -1.60688996 67 73 71
-4.42627001 4.51557016 -1.61478996 54 63 63
-4.42638016 4.51643991 -1.62101996 49 59 60
-4.42727995 4.51666021 -1.64592004 64 63 56
-4.43236017 4.50086021 -1.61720002 44 45 42
-4.43550014 4.50624990 -1.58550000 69 73 69
-4.43602991 4.49502993 -1.59537005 85 87 83
-4.41855001 4.52750015 -1.64593005 15 19 22
-4.42879009 4.49691010 -1.56894004 144 144 135
-4.42867994 4.49849987 -1.63689005 42 47 46
-4.43232012 4.49766016 -1.57050002 116 118 113
-4.40605021 4.52385998 -1.56128001 128 130 124
-4.40788984 4.51921988 -1.56215000 105 107 105
-4.42709017 4.50219011 -1.63110995 28 32 34
-4.41934013 4.51911020 -1.56684005 103 109 109
-4.42160988 4.51491022 -1.56620002 105 111 113
-4.42810011 4.51246023 -1.56663001 119 122 120
-4.41686010 4.50119019 -1.56710005 148 147 136
-4.42366982 4.49884987 -1.56700003 137 139 135
-4.42449999 4.52179003 -1.59747005 65 65 57
-4.43482018 4.49896002 -1.57193005 101 104 101
-4.41349983 4.51931000 -1.56482995 92 98 100
-4.41663980 4.49033022 -1.57247996 161 159 142
-4.41604996 4.51455021 -1.56423998 82 86 86
-4.41344023 4.50803995 -1.56386995 152 151 138
-4.41800022 4.51024008 -1.56412005 102 105 103
-4.42890978 4.51269007 -1.60157001 53 53 46
-4.42152977 4.52165985 -1.60985005 50 49 44
-4.42022991 4.50578022 -1.56490004 164 164 152
-4.41977978 4.51563978 -1.63366997 39 44 45
-4.42297983 4.52408981 -1.57273996 86 94 94
-4.43517017 4.49748993 -1.59650004 95 98 95
-4.42902994 4.50332022 -1.62468004 49 53 50
-4.43824005 4.51591015 -1.64532006 91 89 77
-4.43539000 4.49477005 -1.60054004 66 69 67
-4.45293999 4.50895977 -1.64528000 131 129 115
-4.43229008 4.49352980 -1.63615000 41 48 48
-4.42790985 4.49855995 -1.64726996 19 20 19
-4.42895985 4.50028992 -1.63109004 45 48 45
-4.46168995 4.50478983 -1.64558995 131 131 120
-4.42282009 4.52114010 -1.62249005 19 19 19
-4.43765020 4.50614977 -1.64921999 70 69 57
-4.43145990 4.49340010 -1.63972998 43 49 50
-4.40587997 4.52386999 -1.63633001 6 6 6
-4.40610981 4.52499008 -1.64045000 11 11 11
-4.44671011 4.52156019 -1.64345002 129 128 117
-4.41343021 4.49696016 -1.56971002 169 170 157
-4.43617010 4.49663019 -1.57412004 110 111 104
-4.42181015 4.51379013 -1.62402999 47 56 63
-4.41974020 4.52793980 -1.57497001 69 76 77
-4.44480991 4.51344013 -1.64504004 113 112 98
-4.45148993 4.51138020 -1.64491999 153 150 135
-4.42632008 4.49301004 -1.56997001 139 141 133
-4.43080997 4.49556017 -1.57062995 151 149 136
-4.43986988 4.50519991 -1.65035999 61 59 47
-4.41736984 4.50122976 -1.64294004 47 47 46
-4.42165995 4.51225996 -1.63706994 29 33 35
-4.43559980 4.50910997 -1.65048003 91 85 64
-4.42899990 4.51268005 -1.60087001 52 51 45
-4.44744015 4.50916004 -1.64572001 132 132 121
-4.41807985 4.52429008 -1.56944001 72 77 75
-4.42286015 4.52623987 -1.57424998 72 74 72
-4.42509985 4.52172995 -1.56979001 93 99 98
-4.41785002 4.51300001 -1.56463003 99 101 98
-4.42729998 4.51746988 -1.56870997 90 95 95
-4.42034006 4.50859022 -1.56444001 130 132 127
-4.41561985 4.50633001 -1.56445003 133 143 133
-4.42946005 4.51293993 -1.56905997 105 109 110
-4.43138981 4.50828981 -1.56922996 109 111 107
-4.42549992 4.52234983 -1.58922994 50 51 48
-4.42526007 4.52227020 -1.59430003 58 60 53
-4.42783022 4.51783991 -1.58406997 68 71 67
-4.41576004 4.49530983 -1.57002997 166 166 155
-4.43402004 4.50398016 -1.57402003 70 72 69
-4.42675018 4.49490023 -1.56913996 141 142 134
-4.43594980 4.49933004 -1.57419002 83 84 80
-4.42250013 4.49289989 -1.56948996 138 137 125
-4.41304016 4.52148008 -1.63344002 17 22 25
-4.41298008 4.53151989 -1.60040998 56 59 58
-4.42685986 4.49963999 -1.64499998 18 20 20
-4.42878008 4.51635981 -1.64638996 81 81 70
-4.42395020 4.53072023 -1.58521998 76 81 82
-4.42444992 4.52061987 -1.60541999 59 59 52
-4.43639994 4.54573011 -1.64050996 122 122 114
-4.43747997 4.49739981 -1.58518004 63 61 50
-4.42771006 4.52047014 -1.57821000 74 79 79
-4.42982006 4.51622009 -1.57782996 69 72 65
-4.45849991 4.50883007 -1.64526999 151 149 134
-4.41341019 4.53102016 -1.60953999 44 45 43
-4.43242979 4.54212999 -1.64105999 105 108 105
-4.42178011 4.52460003 -1.60090995 64 66 64
-4.41379976 4.53366995 -1.64212000 46 49 48
-4.42366982 4.51874018 -1.61313999 39 42 40
-4.41154003 4.52466011 -1.62498999 36 38 40
-4.43204021 4.51139021 -1.58299994 61 64 60
-4.41542006 4.52925014 -1.60104001 46 49 49
-4.41904020 4.51643991 -1.56570995 125 126 119
-4.42370987 4.52675009 -1.57562006 60 62 60
-4.42261982 4.51014996 -1.63084996 41 46 50
-4.43452978 4.53796005 -1.64181006 126 127 117
-4.43003988 4.53583002 -1.64198995 107 109 105
-4.43165016 4.51116991 -1.58720005 64 67 65
-4.41612005 4.53111982 -1.61681998 62 67 67
-4.44221020 4.52774000 -1.64278996 136 136 126
-4.43212986 4.53122997 -1.64189994 107 108 98
-4.41248989 4.52701998 -1.56699002 141 140 128
-4.41474009 4.52248001 -1.56664002 100 103 101
-4.41963005 4.52516985 -1.57132006 74 86 91
-4.42611980 4.52271986 -1.57174003 88 95 91
-4.42357016 4.51590014 -1.56685996 96 102 104
-4.42633009 4.52251005 -1.58153999 59 60 56
-4.43099022 4.51348019 -1.57122004 79 81 77
-4.42798996 4.51843023 -1.58167005 54 57 54
-4.42657995 4.52301979 -1.58667004 66 67 62
-4.42573977 4.50017023 -1.56666994 136 139 137
-4.43731022 4.49981022 -1.57661998 98 102 99
-4.42756987 4.52903986 -1.64164996 107 105 88
-4.42368984 4.52687979 -1.64218998 48 48 41
-4.41436005 4.52945995 -1.56903005 105 107 100
-4.41684008 4.52505016 -1.56884003 77 85 87
-4.42117977 4.52656984 -1.59387004 74 75 75
-4.42996979 4.52464008 -1.64216006 62 64 63
-4.40506983 4.52461004 -1.62813997 47 59 64
-4.41421986 4.52835989 -1.64311004 35 45 46
-4.40892982 4.52543020 -1.56374002 92 91 80
-4.42483997 4.51646996 -1.61260998 55 63 61
-4.41099024 4.51666021 -1.63339996 48 48 48
-4.40842009 4.51963997 -1.63360000 39 39 38
-4.43474007 4.54357004 -1.64090002 128 131 127
-4.42798996 4.49709988 -1.64589000 15 16 16
-4.43681002 4.53905010 -1.64194000 133 132 118
-4.43225002 4.53685999 -1.64169002 115 117 112
-4.43000984 4.53018999 -1.64151001 111 109 93
-4.43441010 4.53233004 -1.64203000 111 113 107
-4.42537022 4.52800989 -1.64196002 74 76 69
-4.43212986 4.51717997 -1.64523995 88 89 84
-4.41366005 4.52763987 -1.56783998 131 129 118
-4.42776012 4.52361012 -1.64247000 48 52 51
-4.41352987 4.52981997 -1.60674000 50 50 50
-4.42009020 4.52692986 -1.59626997 56 58 57
-4.41614008 4.52323008 -1.56764996 97 101 101
-4.42038012 4.52528000 -1.57254004 68 81 86
-4.41126013 4.50974989 -1.56329000 149 148 136
-4.41939020 4.51495981 -1.63179004 30 34 37
-4.42963982 4.49886990 -1.63119996 57 58 53
-4.41464996 4.51422024 -1.56406999 75 82 85
-4.41697979 4.50974989 -1.56414998 131 134 128
-4.43865013 4.51505995 -1.64538002 96 94 78
-4.43772984 4.52560997 -1.64297998 147 148 137
-4.43650007 4.50200987 -1.58781004 58 62 60
-4.43225002 4.51457024 -1.64699996 79 79 68
-4.42170000 4.51203012 -1.64303005 51 58 56
-4.42552996 4.50333023 -1.63302004 32 40 46
-4.42768002 4.51242018 -1.65198004 52 55 52
-4.42714977 4.50092983 -1.63723004 30 37 40
-4.43450022 4.49594021 -1.60324001 75 78 74
-4.44317007 4.54073000 -1.64242005 151 151 139
-4.42725992 4.52299976 -1.57287002 76 83 80
-4.44540024 4.50964022 -1.64645004 123 121 108
-4.44742012 4.50540018 -1.64677000 101 98 87
-4.45877981 4.50482988 -1.64608002 140 140 129
-4.45437002 4.50276995 -1.64669001 118 117 105
-4.42308998 4.51814985 -1.64593995 22 22 22
-4.44999981 4.51450014 -1.64469004 143 142 128
-4.44529009 4.51266003 -1.64554000 113 112 100
-4.45240021 4.51008987 -1.64520001 134 133 119
-4.44785023 4.50831985 -1.64578998 136 137 128
-4.43318987 4.52374983 -1.64243996 115 116 109
-4.42217016 4.52339983 -1.64276004 23 28 31
-4.42420006 4.51915979 -1.64309001 33 35 33
-4.43055010 4.50919008 -1.61415005 61 71 73
-4.43274021 4.50500011 -1.61421001 55 58 55
-4.43095016 4.49677992 -1.64611995 17 17 15
-4.43054008 4.49810982 -1.62934005 62 64 61
-4.42122984 4.52386999 -1.60864997 52 58 58
-4.42065001 4.52375984 -1.62471998 26 28 29
-4.42579985 4.50323009 -1.64849997 29 29 27
-4.42210007 4.51987982 -1.61504996 52 59 58
-4.42244005 4.50826979 -1.63481998 40 50 55
-4.43066978 4.49932003 -1.62593997 58 58 52
-4.43636990 4.50810003 -1.65073001 80 78 67
-4.42867994 4.50192022 -1.62678003 47 51 50
-4.43973017 4.54183006 -1.64169002 128 126 114
-4.43110991 4.49923992 -1.64525998 10 13 12
-4.42770004 4.52588987 -1.58534002 63 74 75
-4.43497992 4.50537014 -1.65117002 66 66 57
-4.43982983 4.51560020 -1.64510000 125 124 109
-4.42503977 4.52789021 -1.58229005 70 71 68
-4.43154001 4.51422024 -1.57283998 75 77 72
-4.41817999 4.52716017 -1.60225999 51 59 62
-4.43160009 4.49740982 -1.62722003 47 50 44
-4.45890999 4.50797987 -1.64533997 152 151 136
-4.41365004 4.52574015 -1.62126994 23 25 25
-4.43105984 4.51117992 -1.65114999 51 52 44
-4.41225004 4.50750017 -1.56415999 168 168 156
-4.45342016 4.51058006 -1.64516997 147 148 136
-4.44877005 4.50839996 -1.64561999 125 127 121
-4.44326019 4.50867987 -1.64718997 93 91 77
-4.43257999 4.50882006 -1.65195000 71 72 59
-4.45657015 4.50379992 -1.64637995 123 123 111
-4.43852997 4.49772978 -1.58289003 82 83 74
-4.44137001 4.54125023 -1.64218998 134 132 118
-4.42104006 4.53271008 -1.57902002 60 64 63
-4.42592001 4.52384996 -1.57411003 85 90 88
-4.42564011 4.52446985 -1.58864999 60 61 56
-4.42791986 4.51926994 -1.58405995 57 59 55
-4.42263985 4.51687002 -1.64576006 41 42 39
-4.43273020 4.51038980 -1.58395004 45 49 47
-4.44738007 4.51773977 -1.64416003 153 152 138
-4.42478991 4.50657988 -1.62989998 45 50 52
-4.43492985 4.49448013 -1.60431004 76 78 73
-4.41429996 4.51626015 -1.63495004 44 44 40
-4.43575001 4.50147009 -1.65005004 17 17 16
-4.43708992 4.50011015 -1.58664000 65 65 57
-4.41732979 4.53003979 -1.59489000 56 56 52
-4.42372990 4.52809000 -1.58863997 56 56 51
